# .PCD v0.7 - Point Cloud Data file format
VERSION 0.7
FIELDS x y z
SIZE 4 4 4
TYPE F F F
COUNT 1 1 1
WIDTH 1516
HEIGHT 1
VIEWPOINT 0 0 0 0.707107 -0.707107 0 0
POINTS 1516
DATA ascii
-5.6871805 -5.6939287 2.343327
-5.5028725 -5.7091131 2.3607266
-5.3076901 -5.7535143 2.3645375
-5.0900297 -5.7096453 2.3231525
-4.8937263 -5.697897 2.2960172
-4.6983461 -5.7002282 2.3321724
-4.51228 -5.7015152 2.3641396
-4.3565106 -5.7422256 2.3885839
-3.4374027 -5.7652512 2.3742523
-3.2984405 -5.6898727 2.3287127
-3.1363862 -5.660996 2.2290003
-2.8216155 -5.7937708 2.2502503
-2.6803753 -5.7669063 2.2671709
-2.4930449 -5.7246771 2.3007259
-2.2967563 -5.6779456 2.3233244
-2.1313603 -5.629468 2.3267202
-1.8973978 -5.7064729 2.3017647
-9.503293 -5.5004063 2.2946503
-7.0147114 -5.4307661 2.2152543
-6.8810835 -5.4746356 2.218585
-6.7016191 -5.51193 2.2394524
-6.5027714 -5.4907885 2.2843401
-6.3059816 -5.5052156 2.3208942
-6.1070027 -5.4976964 2.3414502
-5.8997693 -5.5060792 2.3702517
-5.7107396 -5.5563159 2.3869181
-5.2197971 -5.5351634 2.3902497
-5.0895753 -5.5323043 2.3713033
-4.8873687 -5.5204515 2.3632946
-4.7041945 -5.5310817 2.3771272
-4.5755749 -5.5704851 2.3852525
-3.2614849 -5.5105414 2.3695841
-3.1075304 -5.4954791 2.2571731
-2.9954076 -5.4003286 2.2002473
-2.0695238 -5.5712409 2.2469168
-1.9568707 -5.5492325 2.2402499
-9.6168823 -5.2576852 2.3388209
-9.5602207 -5.3378172 2.2720137
-8.8142366 -5.2020016 2.2802491
-7.8271203 -5.2332973 2.2002473
-7.6881247 -5.2605119 2.2112517
-7.5087609 -5.2885017 2.2167528
-7.2981815 -5.2858329 2.2335849
-7.0992541 -5.2955546 2.2270689
-6.897614 -5.3064952 2.2517321
-6.7065625 -5.3013954 2.2906487
-6.50003 -5.2948937 2.3309646
-6.3043022 -5.2970605 2.3531694
-6.1168737 -5.3034906 2.3726513
-5.9423738 -5.350667 2.3857064
-3.2103343 -5.3648796 2.3802552
-3.1100616 -5.3054438 2.3148654
-2.9023123 -5.2746844 2.2538862
-2.7520833 -5.2299585 2.230248
-2.4655321 -5.2624435 2.2179425
-2.3175666 -5.2482419 2.2302508
-9.6708717 -5.1018538 2.2995622
-8.2576504 -5.04877 2.2202492
-8.0978088 -5.0721641 2.2239354
-7.8950834 -5.0894136 2.2452512
-7.6915202 -5.1153426 2.2623336
-7.4923177 -5.0928135 2.285248
-7.3024278 -5.1052604 2.3031671
-7.1044655 -5.1055784 2.3154669
-6.9005899 -5.1012416 2.3287122
-6.6955104 -5.0943713 2.3379762
-6.5171366 -5.119844 2.3697262
-6.3149405 -5.1733842 2.3802528
-6.1272659 -5.1822381 2.3852525
-3.0350661 -5.163476 2.3622499
-2.8985097 -5.1578684 2.3402486
-2.6872127 -5.1143708 2.3031657
-2.4905417 -5.1122823 2.2610838
-2.3593905 -5.0985818 2.2456336
-9.8119259 -4.8316059 2.3202515
-9.7608709 -4.9243798 2.2814987
-8.4424152 -4.8627791 2.2658072
-8.3050756 -4.895288 2.2702494
-8.0964813 -4.8934407 2.292649
-7.8931851 -4.8974161 2.3063204
-7.693615 -4.9061975 2.3358042
-7.5063977 -4.8993869 2.3502493
-7.3035159 -4.9093218 2.3597949
-7.1210132 -4.9498382 2.3794158
-6.9074631 -4.9815283 2.382251
-6.7085128 -4.9810219 2.3835814
-6.5714974 -4.9982314 2.3902497
-2.4571514 -4.9030447 2.2981811
-2.3827333 -4.9805846 2.2169149
-9.8582153 -4.7006888 2.289582
-8.6467218 -4.6744022 2.2302511
-8.5009289 -4.6844964 2.2956071
-8.3064384 -4.6959562 2.3202496
-8.1078825 -4.7026839 2.3422508
-7.8989201 -4.7038012 2.3432138
-7.7161217 -4.720407 2.3773096
-7.5607114 -4.7441101 2.3869181
-2.4748054 -4.6946263 2.302665
-9.922514 -4.5133286 2.2921028
-9.5780058 -4.5514278 2.2169149
-9.2914934 -4.4417706 2.2252488
-8.8451262 -4.4506278 2.3192487
-8.6843891 -4.5017681 2.2885253
-8.4991179 -4.4982781 2.3163373
-8.3035126 -4.503376 2.3554504
-8.1034679 -4.5375161 2.3793001
-7.9302497 -4.5479264 2.3792493
-2.6325929 -4.4535856 2.3210826
-2.5372827 -4.5385432 2.2845995
-10.024601 -4.2535157 2.3039341
-9.9692478 -4.3432522 2.2787135
-9.6340418 -4.372592 2.316916
-9.2393951 -4.2975202 2.3469172
-9.0935116 -4.2425051 2.3560851
-8.8960228 -4.302495 2.3652508
-8.6898994 -4.3290215 2.36183
-8.5137653 -4.3333974 2.3640008
-8.3382444 -4.360816 2.3852499
-2.826817 -4.235734 2.3431065
-2.7309251 -4.3216486 2.2781069
-10.09834 -4.0981708 2.3017671
-9.8500519 -4.0414805 2.2531078
-9.7517452 -4.0100374 2.2752519
-9.520731 -4.0399055 2.3112485
-9.2971811 -4.0859537 2.3452506
-9.1189699 -4.121851 2.3729792
-8.9817219 -4.1835718 2.3852525
-2.9162061 -4.1045065 2.2946265
-10.235635 -3.8733838 2.3116789
-10.164252 -3.9474165 2.2845342
-9.8973608 -3.9198027 2.2947946
-9.7209549 -3.8782218 2.3446934
-9.485898 -3.9225516 2.3729765
-9.2981939 -3.9682941 2.384001
-3.0247381 -3.8748796 2.2985835
-2.9892297 -3.9705584 2.2573934
-10.344501 -3.7035449 2.2916303
-10.1734 -3.6976166 2.3302522
-9.801878 -3.7060857 2.3902497
-3.0859675 -3.694828 2.3059182
-10.442776 -3.4865398 2.3145359
-10.32751 -3.547678 2.3277497
-10.179525 -3.4999108 2.3802476
-3.2265632 -3.4454355 2.3184319
-3.1683037 -3.5333233 2.2776182
-10.525374 -3.3313029 2.3315005
-10.295229 -3.3773606 2.3527513
-3.2936556 -3.3018708 2.2981069
-3.4227333 -3.0490453 2.3202522
-3.3672004 -3.1411655 2.2886705
-3.471288 -2.9068801 2.2987361
-3.6165161 -2.6204083 2.3422484
-3.5572059 -2.7200453 2.2856677
-3.6420286 -2.5038505 2.2899053
-3.5979848 -2.5867546 2.2202516
-3.7025757 -2.3022175 2.2844439
-3.8325207 -2.0662627 2.3302493
-3.760205 -2.1219525 2.2697504
-4.0183139 -1.8245913 2.3535802
-3.9263203 -1.9095647 2.2857351
-3.7798152 -1.9909881 2.2002473
-4.0543308 -1.6872694 2.3111207
-3.9831429 -1.7427598 2.2188213
-4.235137 -1.4457268 2.338249
-4.1358795 -1.5225258 2.2777507
-10.989013 -1.2320584 2.3602509
-4.4097042 -1.2019761 2.3302522
-4.3033223 -1.3011479 2.3022499
-4.1993413 -1.396263 2.2002473
-11.017385 -1.1896912 2.3602509
-10.882496 -1.1001439 2.3780272
-4.5102363 -1.1003814 2.2959177
-4.371984 -1.188517 2.2402496
-10.897338 -0.98301935 2.3852525
-10.694579 -0.88550341 2.3138223
-10.512461 -0.87525749 2.3266134
-10.344213 -0.82890111 2.3645363
-4.623322 -0.86772531 2.3130276
-4.5854735 -0.95104885 2.2657073
-10.755188 -0.6990422 2.3006213
-10.478819 -0.77177858 2.2577484
-10.292477 -0.72841859 2.296916
-10.116691 -0.69164455 2.333432
-9.9131231 -0.62405145 2.3635824
-4.6845646 -0.6934517 2.2852507
-10.848644 -0.46819639 2.3602509
-10.755698 -0.56716061 2.3602509
-10.063901 -0.55445391 2.2182527
-9.8915968 -0.52952766 2.26934
-9.7095623 -0.48171821 2.3006513
-9.5557985 -0.43274742 2.3522522
-4.8340731 -0.47666392 2.3097522
-4.7511311 -0.5463658 2.2411585
-9.6130085 -0.38608944 2.2352509
-9.4888411 -0.34223348 2.2597499
-9.3156948 -0.27164409 2.2993808
-9.1638069 -0.21625943 2.3402543
-5.0159793 -0.21737258 2.3319151
-4.9315739 -0.31549808 2.2873471
-11.082332 -0.097399086 2.2572508
-9.6174126 -0.10107926 2.2102571
-9.540204 -0.087138318 2.2202516
-9.2737446 -0.18602929 2.2352509
-9.084199 -0.14153557 2.3195326
-8.9049845 -0.044107899 2.3652558
-5.074275 -0.10338589 2.2945368
-4.9960265 -0.17843963 2.2002473
-11.069212 0.14349674 2.3094811
-9.051981 0.15071905 2.2764971
-8.897831 0.079922788 2.2595112
-8.6900978 0.107298 2.3026032
-8.5516281 0.18073002 2.2452493
-5.322341 0.1585896 2.2921252
-5.1840167 0.046761729 2.25775
-11.098299 0.30737573 2.3046961
-9.0476704 0.23503721 2.2427506
-8.8989315 0.27538541 2.2288191
-8.6240501 0.2183817 2.2052522
-8.5463905 0.26317653 2.2402523
-8.3711042 0.33939102 2.3302522
-5.6146841 0.39008629 2.3402495
-5.5014205 0.29520819 2.2945857
-5.3944483 0.2085478 2.2002473
-11.136152 0.50289929 2.3030505
-8.2789087 0.46958315 2.2052522
-8.1033249 0.48914796 2.3108377
-7.9043322 0.53838176 2.3063362
-7.7356606 0.58744705 2.3442473
-5.6575103 0.51983494 2.3124237
-5.5832176 0.42909741 2.22825
-11.228158 0.7389589 2.3435829
-11.166263 0.68415558 2.2702506
-8.0113115 0.60748529 2.2152467
-7.876164 0.61656147 2.2069154
-7.6969614 0.62728918 2.2982481
-7.4764166 0.74028951 2.3002503
-7.336 0.78206187 2.343102
-5.8596926 0.7568602 2.3587117
-5.7041268 0.69723916 2.2905529
-18.758705 0.94535476 2.3427491
-18.455217 0.95741248 2.3902497
-11.260397 0.89709556 2.2940004
-7.2548714 0.81690323 2.3122497
-7.0991063 0.8763724 2.2895834
-6.4382267 0.97765672 2.2302461
-6.2228355 0.98028338 2.3902497
-6.1038179 0.93062007 2.3121562
-5.915134 0.83713895 2.2897503
-5.7677803 0.82240725 2.2202516
-18.812437 1.0620056 2.316916
-18.758678 1.0193287 2.2835805
-18.309366 1.1801841 2.3802476
-15.753189 1.1890674 2.3852525
-15.501635 1.1958489 2.3902497
-15.312 1.1445119 2.3446951
-15.098905 1.1407754 2.3252501
-14.919681 1.1235787 2.292881
-14.681476 1.1495177 2.366914
-11.297909 1.1033366 2.2985823
-18.252787 1.2613479 2.3602459
-18.10161 1.3105191 2.3247933
-17.919643 1.354241 2.3619192
-17.681528 1.3716918 2.336915
-17.452761 1.3496426 2.3127501
-17.342505 1.3545722 2.3391376
-17.041462 1.3725324 2.2977509
-16.932575 1.3905737 2.2827477
-16.774042 1.3344725 2.3090003
-16.24091 1.3604724 2.32025
-16.077852 1.2891058 2.3235841
-15.923325 1.2901545 2.2782497
-15.698713 1.3198708 2.2987096
-15.544127 1.2918996 2.3027518
-15.292643 1.266181 2.3802476
-15.172756 1.3338794 2.3352492
-14.432994 1.2813053 2.2602448
-14.304852 1.3319781 2.298027
-14.135109 1.3722212 2.3177514
-11.351195 1.2850333 2.2847958
-18.074162 1.4616163 2.2502503
-17.928249 1.4203104 2.2842469
-17.718632 1.4264215 2.2945333
-17.56451 1.4410883 2.2362487
-17.242693 1.4271841 2.3402467
-17.103083 1.4254817 2.3002508
-16.853752 1.4114987 2.2902436
-16.496691 1.5023928 2.3092496
-16.284607 1.492103 2.2669129
-16.1236 1.4655024 2.2845366
-15.930944 1.5267478 2.2202516
-15.711907 1.4334687 2.2135835
-15.238578 1.553761 2.2402508
-15.16975 1.4834118 2.2802517
-14.418591 1.5470455 2.2152543
-14.299499 1.4975488 2.2206872
-14.118718 1.510341 2.2509184
-13.902251 1.5305256 2.2923915
-13.701307 1.5713911 2.3432479
-13.567388 1.5694959 2.2452531
-11.353781 1.4895182 2.2887523
-16.667578 1.6654043 2.276499
-16.540794 1.6514304 2.3188167
-14.424194 1.6259036 2.2002473
-14.27696 1.6698812 2.2352529
-14.073521 1.702606 2.2835815
-13.911346 1.6990966 2.3084297
-13.707864 1.7037587 2.3194475
-13.534568 1.7177528 2.2678974
-11.434591 1.7277262 2.35025
-11.373074 1.673996 2.265703
-14.037653 1.8477108 2.2942505
-13.908961 1.8479799 2.2992475
-13.659368 1.9110073 2.306675
-13.508289 1.9009109 2.2335842
-13.343685 1.905695 2.2289171
-13.074067 1.8959916 2.3009648
-12.942173 1.9391675 2.3257062
-11.461277 1.9065616 2.3159027
-13.816076 2.0130935 2.2302461
-13.692146 2.0536036 2.2459624
-13.484694 2.0436642 2.2423928
-13.310246 2.0844026 2.2164073
-13.095039 2.1015451 2.2428827
-12.885864 2.0915098 2.2937775
-12.701619 2.0958793 2.3489447
-12.50966 2.1367345 2.3859661
-12.373399 2.1885371 2.3802552
-11.611877 2.1792519 2.3802552
-11.524405 2.0912666 2.2954865
-12.842687 2.2344425 2.306247
-12.70048 2.309222 2.3129151
-12.498531 2.2929466 2.3667715
-12.306886 2.2928391 2.3602526
-12.144754 2.3088286 2.3811607
-11.640697 2.3234885 2.3345342
-11.576536 2.2507162 2.2552514
-12.635838 2.4197021 2.2382507
-12.481697 2.4499955 2.2722487
-12.291645 2.4898417 2.296499
-12.095936 2.5043578 2.3398499
-11.934984 2.5101693 2.3752503
-11.711611 2.4822452 2.2921572
-12.073733 2.6409883 2.258584
-11.871548 2.6774318 2.2946947
-11.777252 2.6438298 2.2202516
1.2406994 -12.413052 2.5902467
0.9718951 -12.045737 2.5302496
1.1147076 -12.084124 2.5307765
1.2749034 -12.07515 2.5629761
1.4528942 -12.026419 2.5662506
0.93808144 -11.887162 2.4869165
1.10772 -11.890646 2.4631913
1.2967865 -11.893723 2.5046947
1.4932228 -11.901957 2.5380282
1.6886085 -11.893426 2.5655828
1.8443433 -11.836493 2.5819151
-0.42344683 -11.635723 2.5602479
-0.3383837 -11.605902 2.5802522
0.11633462 -11.654955 2.5169165
0.29379797 -11.681317 2.5146503
0.48848927 -11.630428 2.5047951
0.70529634 -11.619343 2.4657042
0.88819051 -11.706928 2.4716132
1.0953728 -11.693291 2.4620142
1.30398 -11.697555 2.5016139
1.4893118 -11.708144 2.5324724
1.6988796 -11.696884 2.5591981
1.8905452 -11.691078 2.5869148
2.5518327 -11.610189 2.5273921
2.7110331 -11.611896 2.4677491
2.8000863 -11.604774 2.5602479
3.0815704 -11.631056 2.568248
-0.47232774 -11.479286 2.5137787
-0.30910522 -11.509347 2.4982502
-0.098368891 -11.52227 2.4860833
0.081462994 -11.574252 2.4302504
0.54165584 -11.587743 2.4702516
0.71078449 -11.514078 2.43136
0.91639692 -11.527967 2.438431
1.0986762 -11.485238 2.4564028
1.288775 -11.494754 2.495249
1.4996691 -11.487804 2.5121562
1.7117641 -11.479056 2.5065658
1.8870054 -11.48328 2.5398338
2.0966618 -11.476174 2.5335836
2.3249586 -11.448325 2.5557046
2.430022 -11.512718 2.5469167
2.76089 -11.588539 2.4302506
2.9160454 -11.545018 2.4935825
3.1252689 -11.508249 2.5270927
3.2563016 -11.442372 2.5457039
3.6058314 -11.433382 2.5902467
-0.60139465 -11.206119 2.5602479
-0.54528272 -11.299775 2.4822495
0.39240915 -11.227429 2.4152474
0.50951409 -11.303999 2.4291391
0.70135683 -11.296258 2.5075216
0.89710432 -11.312428 2.4981673
2.1669641 -11.350181 2.4452481
2.2732515 -11.347646 2.4777496
2.9857345 -11.295162 2.4152513
3.1603005 -11.355989 2.4282517
3.3142846 -11.303227 2.4647949
3.4957163 -11.272066 2.519074
3.7046788 -11.270828 2.5478973
3.8773596 -11.300618 2.5110829
4.082499 -11.261918 2.4942474
4.2372775 -11.233166 2.5535848
-0.6445331 -11.065792 2.4948649
-0.59439778 -11.170749 2.4502499
0.34302267 -11.117999 2.410248
0.49200153 -11.109868 2.4622498
0.68630695 -11.080437 2.548027
0.84175891 -11.104279 2.4784317
3.5268748 -11.164371 2.4377491
3.6745596 -11.168141 2.450249
3.813648 -11.190355 2.4352479
4.1840491 -11.183055 2.4302506
4.3208814 -11.134494 2.4694152
4.4862409 -11.071657 2.5002508
4.6205134 -11.034735 2.5602479
-0.70085955 -10.909372 2.4908061
0.53681129 -10.961962 2.4152513
0.73031032 -10.933384 2.4590738
0.81194419 -10.959844 2.4269166
4.7373261 -10.867288 2.4722488
4.867063 -10.84602 2.4902508
5.0486689 -10.814093 2.5252519
5.9182014 -10.817605 2.5362487
6.1248293 -10.812114 2.5802484
-0.81310701 -10.62706 2.5422502
-0.75405002 -10.718533 2.4780278
4.880661 -10.780856 2.4177499
5.1286707 -10.760854 2.4973924
5.2879715 -10.727341 2.5216777
5.5027099 -10.660298 2.5119169
5.7417254 -10.640671 2.5202487
5.8753934 -10.71487 2.4820139
6.1241045 -10.790766 2.485249
6.2892027 -10.770314 2.5116789
6.537612 -10.732054 2.4612494
6.703229 -10.681447 2.4702492
6.89639 -10.668656 2.4793394
7.085268 -10.643993 2.5069156
7.2697897 -10.648141 2.4880269
-0.82875121 -10.493912 2.4958749
-0.78738093 -10.57419 2.4302506
6.5223117 -10.478225 2.4138854
6.6989923 -10.495813 2.4677494
6.9053302 -10.503249 2.4964399
7.1064973 -10.49949 2.5255144
7.2647929 -10.506104 2.4784861
-0.88615686 -10.301752 2.4902496
6.4934664 -10.290374 2.4269168
6.6911535 -10.32257 2.4946942
6.8887014 -10.29263 2.5416794
7.1119123 -10.307637 2.5646951
7.2286587 -10.29987 2.4835818
-1.0077522 -10.016035 2.5652528
-0.96156925 -10.101399 2.4887102
6.5241961 -10.134358 2.4413614
6.7000313 -10.103016 2.4885817
6.8846931 -10.101691 2.5513616
7.1549807 -10.091891 2.5155437
-1.0421712 -9.8899002 2.4996622
-0.98960257 -9.9814596 2.4002519
6.6939106 -9.9648399 2.4002519
6.9219451 -9.9330091 2.5288222
7.100554 -9.9154654 2.4923337
-8.0371504 -9.6426477 2.5545344
-7.9405899 -9.6439791 2.5629768
-7.7678046 -9.6663809 2.5835822
-1.1155839 -9.6920109 2.5027485
-8.0751057 -9.4967089 2.5002501
-7.884903 -9.5153875 2.4909403
-7.7051873 -9.4964848 2.5050499
-7.5120544 -9.4492912 2.5417879
-1.2120073 -9.4392996 2.5182495
-1.1641363 -9.5410929 2.4711585
-8.1542177 -9.2996731 2.4952509
-7.4902945 -9.3006773 2.4582493
-7.3078895 -9.3090086 2.5419161
-7.1720037 -9.2842922 2.5752473
-6.8513336 -9.2091932 2.5735841
-1.2584354 -9.2945499 2.5032496
10.773504 -9.2437582 2.4052491
10.863351 -9.2254839 2.440249
-8.240283 -9.0920725 2.4998503
-8.1956301 -9.1779203 2.4402528
-7.4118037 -9.1887903 2.4102464
-7.3530736 -9.1825037 2.4169171
-7.0562758 -9.0678129 2.5050106
-6.9235253 -9.1450319 2.4895351
-6.7713728 -9.1670532 2.5302491
-6.4607515 -9.0546255 2.5802522
-1.3287228 -9.0926704 2.4847949
10.714898 -9.0826731 2.4133739
10.899276 -9.0976648 2.4565654
11.095058 -9.0760641 2.4839973
11.271533 -9.0312824 2.511678
-8.3166161 -8.8994198 2.4966505
-6.1666956 -8.9544716 2.57025
-5.8920064 -8.8271618 2.4952474
-4.6829939 -8.8146076 2.5673921
-4.5117979 -8.8210106 2.5577512
-3.8879309 -8.8115463 2.5802484
-2.407913 -8.8046417 2.5602479
-2.3331478 -8.8250875 2.4802496
-2.1241875 -8.8624668 2.4812491
-1.9022868 -8.8998213 2.4838214
-1.7020431 -8.9127474 2.4802492
-1.4939193 -8.8764963 2.4502487
-1.3789722 -8.9443779 2.4759648
10.584005 -8.8820791 2.4002519
10.712632 -8.9051685 2.4185839
10.895127 -8.9031029 2.4525223
11.099859 -8.8920994 2.4776402
11.301471 -8.8930149 2.5037503
11.49646 -8.8888273 2.4921241
11.669405 -8.851016 2.4502492
11.943662 -8.8023586 2.4002519
-8.4156733 -8.6466894 2.5419157
-8.3767052 -8.7242613 2.4918284
-5.6160674 -8.7769051 2.4735806
-5.525053 -8.757967 2.4822495
-5.2450662 -8.6665277 2.5052488
-5.1429248 -8.6802816 2.517942
-4.9590635 -8.6166134 2.5502534
-4.6971087 -8.6901083 2.5254359
-4.5274615 -8.7294807 2.463027
-4.2821946 -8.7655935 2.5535824
-4.0714235 -8.7213278 2.5331066
-3.8958483 -8.7070036 2.5264041
-3.7196724 -8.6749392 2.5370684
-3.5020752 -8.6517191 2.554956
-3.3019011 -8.6265326 2.5658052
-3.1513402 -8.6038561 2.5802522
-2.6627891 -8.6531467 2.5552497
-2.4906344 -8.7001286 2.489536
-2.346638 -8.6854534 2.4191377
-1.6535555 -8.6833992 2.4069159
-1.5212938 -8.7168465 2.417521
10.725597 -8.7240705 2.4148653
10.898335 -8.730444 2.4361324
11.092835 -8.7443066 2.4340961
11.310625 -8.7560892 2.4416776
11.48819 -8.762517 2.4269164
11.663097 -8.765233 2.4069159
11.844457 -8.7893305 2.4069149
-8.4516411 -8.5075932 2.5047958
-8.399765 -8.5805683 2.4252496
-4.8604712 -8.5541258 2.4702516
-4.7003889 -8.5411654 2.458107
-3.6561606 -8.5784407 2.4535813
-3.501611 -8.5486984 2.4733744
-3.2977276 -8.5161133 2.4827497
-3.0933347 -8.4960213 2.4996791
-2.9098105 -8.4802809 2.5141635
-2.6924689 -8.4970169 2.5374911
-2.498836 -8.4851141 2.4781814
-2.3729596 -8.5381222 2.423105
-8.532424 -8.3073368 2.5022495
-3.0444677 -8.3827972 2.4069149
-2.8950887 -8.3732376 2.4177487
-2.7015023 -8.3664999 2.4452481
-2.5667455 -8.3689241 2.4335821
-8.6280832 -8.0750895 2.5021253
-8.5854206 -8.1584864 2.4692495
-3.7010984 -8.0278969 2.417748
-8.6940107 -7.9036431 2.4930503
-3.6641922 -7.8898854 2.4449558
-3.5272975 -7.8965549 2.4969163
-3.3352628 -7.9043241 2.5602493
-8.8182964 -7.6485367 2.5340006
-8.7633018 -7.7377548 2.4791386
-4.0162754 -7.6524286 2.4102502
-3.8935506 -7.685338 2.4291968
-3.7054121 -7.6914349 2.4797945
-3.51489 -7.726171 2.5527492
-8.8729467 -7.4985118 2.4840961
-4.2226758 -7.4023814 2.4002519
-4.066143 -7.4971962 2.4360824
-3.9102345 -7.5002656 2.49665
-3.7066052 -7.5292535 2.5484858
-3.5582023 -7.5628099 2.5802484
-2.0525355 -7.480639 2.4985819
-9.0137835 -7.2437863 2.5116789
-8.9605942 -7.3311334 2.4918289
-4.6570883 -7.2316256 2.40625
-4.4558077 -7.244585 2.4102502
-4.2983761 -7.2644205 2.4552493
-4.1044412 -7.2906284 2.5135829
-3.9212391 -7.320044 2.5609632
-3.7995481 -7.3786502 2.5802522
-2.0259967 -7.3375268 2.4852486
-1.9711622 -7.2328606 2.4435816
-9.0779543 -7.101995 2.5021017
-4.6624212 -7.0824666 2.4033267
-4.4853082 -7.0843949 2.4583457
-4.3069549 -7.0943894 2.5190508
-4.1164908 -7.1168532 2.5670929
-3.9691293 -7.1782951 2.5902467
-1.8899187 -7.0675178 2.4469182
-9.2087555 -6.8104105 2.5502496
-9.1598015 -6.9134688 2.4944606
-4.8357244 -6.8630753 2.4059639
-4.715929 -6.9040399 2.4102499
-4.491456 -6.9065428 2.4650123
-4.2962804 -6.905303 2.5498796
-4.1640944 -6.9776311 2.5835812
-1.8328739 -6.948278 2.476917
-1.7673835 -6.8363628 2.4852495
-9.2428923 -6.6859574 2.515903
-9.1906071 -6.7758331 2.4362488
-5.0195193 -6.6284051 2.4102464
-4.8877678 -6.6863065 2.422859
-4.7714219 -6.6972766 2.4131062
-4.4513569 -6.7719016 2.5202496
-4.3149343 -6.7659054 2.5802507
-1.6800036 -6.6793022 2.5144169
-9.284174 -6.5102215 2.48545
-5.0521894 -6.5255799 2.4119163
-4.8935599 -6.5067768 2.4444168
-4.7838216 -6.5397954 2.4202497
-1.69232 -6.4996228 2.4895358
-9.2964411 -6.2910442 2.4989612
-3.8697052 -6.2279034 2.5158038
-3.760648 -6.213038 2.5522506
-1.819052 -6.2505946 2.5573921
-1.7607621 -6.3143859 2.485467
-9.4005384 -6.0077004 2.5802522
-9.3602638 -6.1060214 2.4869165
-4.0112906 -6.0051279 2.4002519
-3.8816588 -6.0894384 2.4171247
-3.7019796 -6.1279869 2.4871244
-3.524255 -6.1356859 2.5142493
-3.290138 -6.0326805 2.4559627
-3.0732479 -6.0224748 2.5727487
-1.8560331 -6.0953636 2.516917
-1.7942418 -6.1313047 2.4252496
-9.4570007 -5.8885093 2.5026636
-9.3887577 -5.9838781 2.46275
-4.2085886 -5.8162537 2.4002519
-4.0680704 -5.8753076 2.423027
-3.9021323 -5.903789 2.4561756
-3.6958494 -5.8978066 2.4814999
-3.5462394 -5.8709464 2.4152493
-3.2547174 -5.9894028 2.4102464
-3.0911431 -5.9763694 2.4535828
-2.9013386 -5.9210243 2.4873083
-2.6902933 -5.8770795 2.5346947
-2.5438299 -5.8314457 2.5313601
-1.9132254 -5.9053259 2.5026643
-9.4981489 -5.6977782 2.4970913
-5.4558697 -5.618515 2.4035833
-5.2835202 -5.655365 2.4064031
-5.1597528 -5.6365709 2.4002519
-4.4246726 -5.6604161 2.4002519
-4.2867303 -5.681108 2.4216785
-4.0966034 -5.6915026 2.4674499
-3.8939476 -5.7054911 2.5133274
-3.6907697 -5.7038193 2.5484643
-3.5142899 -5.6826057 2.4587681
-3.3920188 -5.6187305 2.4002519
-2.4699109 -5.7761726 2.4452486
-2.3063319 -5.7508101 2.4906662
-2.0808322 -5.6876621 2.4916131
-1.9645281 -5.7425961 2.4773924
-9.6085005 -5.4011092 2.5802522
-9.5528364 -5.4987187 2.4954357
-5.82096 -5.4774942 2.4002519
-5.6935906 -5.471415 2.4221249
-5.5119176 -5.4945264 2.4362497
-5.3038516 -5.5040407 2.4261117
-5.1053872 -5.4498897 2.4202495
-4.9264569 -5.4270587 2.4059639
-4.6673431 -5.4501967 2.4077494
-4.5001225 -5.4941707 2.425467
-4.3039317 -5.5024538 2.4634504
-4.1025028 -5.4954681 2.5144806
-3.9002082 -5.5055423 2.5597749
-3.7326541 -5.5541716 2.585963
-3.4705505 -5.5105486 2.506789
-3.3455279 -5.4818525 2.4295828
-9.6432734 -5.2842145 2.5128586
-9.5919447 -5.3664193 2.4431081
-6.0711765 -5.2131248 2.4002519
-5.8813872 -5.2752223 2.4186702
-5.703486 -5.2965436 2.4583974
-5.491396 -5.2901959 2.5152502
-5.2969055 -5.2998548 2.5231071
-5.1043587 -5.2900281 2.5078368
-4.9016175 -5.3075414 2.4562507
-4.6917005 -5.3119082 2.4431665
-4.5054021 -5.2956667 2.4829767
-4.2967386 -5.2999139 2.5214047
-4.1020026 -5.3157678 2.5622504
-3.9485936 -5.3594885 2.5877481
-3.3013499 -5.2989192 2.4914043
-3.1834669 -5.2076273 2.4352479
-9.7241755 -5.0983286 2.4949172
-6.4544144 -5.0270486 2.4102495
-6.2888503 -5.0685802 2.4234073
-6.1065245 -5.0922503 2.4290497
-5.9035335 -5.1088595 2.4541628
-5.697926 -5.0880761 2.5064037
-5.5063224 -5.0997643 2.5526316
-5.3362799 -5.1360235 2.5787101
-5.0813098 -5.1726685 2.5788209
-4.8896499 -5.1584811 2.5594161
-4.7078848 -5.1453471 2.5466132
-4.5065708 -5.1375089 2.5446942
-4.323082 -5.1246448 2.5680285
-4.1413717 -5.1858802 2.5869153
-3.2357969 -5.1335535 2.5464025
-3.109149 -5.0871596 2.4635837
-2.9014924 -5.0521731 2.4331076
-2.7423139 -5.0248961 2.4152493
-9.8217297 -4.8602009 2.4802506
-9.7854681 -4.954864 2.5029757
-7.2580433 -4.8171797 2.4052491
-7.089612 -4.8579712 2.4173915
-6.8953962 -4.8874321 2.4318283
-6.7043581 -4.875524 2.4465649
-6.4991117 -4.8996964 2.444833
-6.3058114 -4.9022985 2.468076
-6.1054378 -4.8997741 2.4954672
-5.8958406 -4.9056182 2.509584
-5.7023287 -4.9064031 2.5346954
-5.5125189 -4.9025092 2.5707047
-3.1749406 -4.9930296 2.5452485
-2.8508043 -4.9567847 2.5213606
-2.695601 -4.9175434 2.5037289
-2.5564215 -4.8971596 2.4439993
-9.8870916 -4.703269 2.4985826
-7.6746197 -4.651238 2.4057038
-7.4773288 -4.688684 2.4149864
-7.3010845 -4.6984034 2.4364572
-7.0865178 -4.7010312 2.4535828
-6.8819332 -4.7006264 2.49525
-6.6972408 -4.7027011 2.5098658
-6.4875879 -4.7032681 2.5186508
-6.3063269 -4.7039552 2.5202508
-6.0928106 -4.6999407 2.5438514
-5.8995862 -4.7025213 2.5606084
-5.7232146 -4.7413907 2.5795827
-5.5956268 -4.7671952 2.5902467
-2.6403167 -4.6831856 2.5610831
-2.5674024 -4.7104988 2.4684844
-10.002993 -4.4225893 2.565249
-9.9620275 -4.4992285 2.4876575
-8.2613344 -4.5508485 2.4002519
-8.0719528 -4.4331679 2.4139988
-7.8744974 -4.462563 2.4220142
-7.6950078 -4.494864 2.4434645
-7.4894509 -4.5013499 2.4754221
-7.3005066 -4.4964209 2.4921019
-7.0928926 -4.4963436 2.5116785
-6.8987608 -4.5072041 2.5383992
-6.7106495 -4.4979143 2.5421858
-6.5072784 -4.5046558 2.5584652
-6.3017473 -4.5097413 2.5614047
-6.0924664 -4.5427418 2.5758734
-5.9253426 -4.5489836 2.5835826
-2.8125544 -4.4045553 2.5802522
-2.7010865 -4.4842119 2.5011871
-2.5779853 -4.5736618 2.4242492
-10.047582 -4.2906833 2.5009644
-9.989418 -4.368259 2.430248
-9.239975 -4.3414168 2.4902511
-9.0876389 -4.2545047 2.4002519
-8.8875561 -4.2149234 2.4002519
-8.7008991 -4.2317748 2.4152486
-8.4936571 -4.2309608 2.4158046
-8.2871923 -4.2868385 2.4212017
-8.1023502 -4.3009887 2.4506075
-7.9013648 -4.3019619 2.4733753
-7.6954913 -4.3011346 2.5031664
-7.4990458 -4.3016458 2.5391397
-7.3011351 -4.3022122 2.5560572
-7.1017108 -4.3181148 2.5677507
-6.9084148 -4.3416276 2.5752497
-6.7306643 -4.3422041 2.5832486
-6.4656129 -4.3915281 2.5902467
-2.8608937 -4.2950635 2.5071466
-2.7766278 -4.3658614 2.4442475
-10.20483 -4.0137053 2.565249
-10.142468 -4.0956631 2.4990003
-9.059515 -4.0480242 2.4035833
-8.8982306 -4.1010828 2.4291391
-8.6903181 -4.1055632 2.4483984
-8.4914265 -4.1092896 2.4722497
-8.2974052 -4.1027675 2.5028427
-8.106349 -4.1014004 2.5258067
-7.895505 -4.0977411 2.5485265
-7.7110209 -4.1077223 2.5650511
-7.5027752 -4.1372609 2.582067
-7.3194251 -4.1542039 2.5842483
-3.0067387 -4.0141487 2.4352479
-2.9597082 -4.1059132 2.4780269
-10.267588 -3.8928714 2.5067713
-10.178609 -3.9811957 2.4269166
-9.6743927 -3.8048146 2.4002519
-9.4989958 -3.8602457 2.4219177
-9.28969 -3.8738499 2.42975
-9.1011667 -3.887584 2.4473333
-8.9065685 -3.9045746 2.4786501
-8.6992359 -3.9033308 2.509928
-8.5073681 -3.9012029 2.520251
-8.3100252 -3.9082985 2.571614
-8.0960178 -3.9328501 2.5864017
-7.9065065 -3.9898596 2.5902467
-3.0458531 -3.8974566 2.5046937
-10.405944 -3.6261683 2.4927487
-10.35741 -3.7261126 2.4802504
-10.007101 -3.6287334 2.5002503
-9.8652954 -3.6731837 2.4675822
-9.6958981 -3.693857 2.4417315
-9.4916744 -3.6941605 2.477942
-9.3066378 -3.6987662 2.5043886
-9.1061344 -3.7058926 2.5202501
-8.8978386 -3.7197356 2.5541799
-8.7064133 -3.7303865 2.5746934
-8.5026932 -3.7538805 2.5669165
-8.3897028 -3.7705791 2.57025
-3.1269813 -3.7098575 2.4998932
-10.472684 -3.4928076 2.5055633
-10.217311 -3.5079854 2.4342468
-10.09269 -3.4631691 2.4959636
-9.9013987 -3.5065854 2.4966495
-9.703208 -3.488569 2.5202496
-9.501296 -3.5014832 2.5418508
-9.3067217 -3.4973779 2.5659173
-9.1439362 -3.546607 2.5835826
-3.2496068 -3.4786994 2.5123556
-3.1876113 -3.573128 2.4669173
-10.626833 -3.2375462 2.5359645
-10.551414 -3.3152542 2.4910839
-10.310101 -3.2238681 2.460248
-10.039812 -3.3067405 2.5622511
-9.9063187 -3.3187428 2.5589471
-9.7198877 -3.3291409 2.5696244
-9.4959288 -3.3628793 2.5802488
-9.2888803 -3.3766968 2.5842469
-3.4112055 -3.2075315 2.5502496
-3.3432844 -3.2949812 2.4927506
-10.680663 -3.0895102 2.5049381
-10.547551 -3.1688836 2.4369161
-10.356119 -3.1594307 2.5145345
-9.7969627 -3.1953261 2.5902467
-3.4396846 -3.0930488 2.5044162
-3.388437 -3.1710405 2.4602494
-10.82821 -2.8447063 2.5181062
-10.750963 -2.9353809 2.4892981
-3.5196033 -2.9010398 2.4920354
-10.875295 -2.7399924 2.5235829
-10.693736 -2.754987 2.5569165
-3.6388979 -2.6708996 2.5085838
-3.5843282 -2.7590914 2.4469147
-3.7018523 -2.5081019 2.4974921
-3.8122306 -2.2263055 2.5802484
-3.7599957 -2.3001513 2.4827511
-4.0006175 -2.0066805 2.5602479
-3.8768926 -2.0907302 2.4984648
-3.7940814 -2.1917284 2.4802461
-11.292724 -1.8676151 2.5464416
-4.0378351 -1.8844777 2.5164406
-3.9709065 -1.9608192 2.4562483
-11.284732 -1.7593641 2.4782491
-4.1178832 -1.7010496 2.5026646
-4.2492104 -1.4633989 2.4961314
-4.1784797 -1.562351 2.4659648
-11.031289 -1.2170987 2.5569165
-10.867225 -1.2357322 2.5180273
-10.745775 -1.2287214 2.5742493
-4.4384131 -1.2589678 2.5227492
-4.3404231 -1.324814 2.4742494
-11.032475 -1.1706854 2.5602505
-10.906231 -1.0942931 2.45505
-10.702817 -1.1073272 2.4741783
-10.503106 -1.0792619 2.5272062
-10.331281 -1.0299726 2.5515006
-10.193163 -1.0106463 2.5802522
-4.6108065 -1.0666322 2.5642502
-4.5481086 -1.1155636 2.4794509
-10.873312 -0.89729971 2.4579773
-10.743358 -0.91923863 2.4341393
-10.46672 -0.96430445 2.4352486
-10.286132 -0.92517161 2.4807043
-10.102276 -0.87991297 2.5229163
-9.966939 -0.8303498 2.5582504
-4.6532078 -0.90155178 2.498028
-4.592351 -0.99620956 2.4602494
-10.863039 -0.70091993 2.4938223
-10.785601 -0.70402145 2.4362502
-10.044934 -0.754417 2.4269178
-9.8908062 -0.73454732 2.4977498
-9.7080126 -0.68196797 2.557584
-9.5590763 -0.62081796 2.5727525
-4.7364197 -0.708772 2.4888709
-10.885906 -0.50323403 2.4866393
-10.795359 -0.58900046 2.4252496
-9.6573429 -0.55779165 2.4369147
-9.4963913 -0.50327671 2.4928813
-9.3290596 -0.44706792 2.5632498
-4.8648429 -0.48449853 2.5009902
-4.7973781 -0.57962579 2.4669175
-10.940407 -0.29578885 2.5274496
-9.4188023 -0.39764929 2.4102464
-9.2711058 -0.34657353 2.4615834
-9.1029863 -0.28754047 2.4972067
-8.9110327 -0.23855735 2.549583
-8.7430573 -0.22598538 2.5802484
-5.0224118 -0.24829952 2.5124724
-4.9640622 -0.34271225 2.4922507
-11.224916 -0.0092546716 2.4702516
-11.070924 -0.081970073 2.4852495
-10.981424 -0.17899513 2.4577508
-8.8718901 -0.11467193 2.4466765
-8.709713 -0.098523051 2.5152504
-8.5421886 -0.041309439 2.5602496
-5.0887189 -0.09015464 2.4891398
-11.227329 0.10399845 2.5280271
-11.10831 0.10365079 2.4893131
-8.8766489 0.018140476 2.4035833
-8.6825294 0.026388135 2.4302495
-8.4878502 0.056515176 2.5074713
-8.3082838 0.11646211 2.5629761
-5.2823381 0.15244333 2.5081446
-5.1660547 0.067572355 2.4743683
-11.201796 0.37915972 2.5802522
-11.151828 0.29653716 2.4934313
-8.2507296 0.32014534 2.479481
-8.1066132 0.33037642 2.5388856
-7.8892455 0.36940894 2.5102499
-7.7717829 0.38198346 2.5402513
-5.6142359 0.38377768 2.5042496
-5.5065179 0.28312358 2.4895356
-5.3740568 0.21158281 2.5127492
-11.23294 0.52861762 2.5286713
-11.174136 0.46441633 2.4447947
-8.2048054 0.40827417 2.4202485
-8.0877171 0.42610633 2.4427493
-7.916275 0.44119641 2.4527495
-7.7193465 0.49841279 2.4582493
-7.5722203 0.5404126 2.5052514
-5.8159676 0.58596921 2.5602479
-5.7148671 0.49916232 2.4872873
-11.27306 0.70121795 2.4939544
-7.5047207 0.67796409 2.4215004
-7.2915244 0.72595417 2.5282495
-7.136992 0.76780587 2.5043676
-6.0419068 0.72930562 2.5208049
-5.9163604 0.67730278 2.4730501
-5.7739286 0.64126641 2.4152474
-18.839804 0.97129369 2.4702516
-18.736961 0.92730212 2.4766128
-18.110157 0.98669004 2.5902467
-15.291018 0.91049659 2.524097
-15.135278 0.92546678 2.5427518
-14.933319 0.97881347 2.5182495
-11.331108 0.90506297 2.4859641
-7.0352769 0.82505929 2.4277501
-6.924644 0.85194319 2.4477506
-6.2533326 0.94938529 2.5227509
-6.1216812 0.86773396 2.472558
-18.801266 1.0089047 2.4002519
-18.261946 1.1114312 2.4652495
-18.069733 1.1033751 2.5355835
-17.915236 1.1113253 2.5296957
-17.735655 1.1147532 2.5169165
-15.849337 1.1654775 2.4973924
-15.690962 1.1498988 2.4327493
-15.472839 1.1188655 2.5195346
-15.330602 1.0285676 2.4862478
-15.088079 1.0557526 2.4394808
-14.907046 1.0299252 2.4527495
-14.71904 1.0572883 2.5127492
-11.356599 1.0978233 2.4846509
-18.006071 1.2841656 2.4502473
-17.919403 1.2839842 2.4291382
-17.716715 1.262107 2.4769151
-17.477142 1.2615203 2.4935822
-17.290668 1.2620918 2.48525
-17.066633 1.3047101 2.5170922
-16.905485 1.2881449 2.4619155
-16.766455 1.2834954 2.4152513
-16.285509 1.3412253 2.548821
-16.132862 1.2794775 2.5184851
-15.919588 1.2672213 2.5173092
-15.637704 1.2369028 2.4002519
-15.516086 1.2385715 2.4382491
-14.023588 1.3642957 2.4252496
-13.9151 1.3767608 2.4885824
-11.369788 1.2931987 2.4998338
-16.474173 1.51641 2.4760821
-16.31061 1.4416445 2.5002489
-16.148012 1.4584837 2.4335821
-15.944282 1.4021602 2.4602494
-13.800271 1.4784443 2.4102464
-13.686992 1.5222732 2.4231071
-11.427043 1.5221058 2.5309644
-11.369982 1.4726497 2.4633272
-13.097843 1.7653406 2.4764998
-12.94806 1.7989701 2.5502534
-11.489499 1.7063347 2.49775
-13.050344 1.8107222 2.4302506
-12.920344 1.8104501 2.57025
-12.666142 1.980688 2.4652467
-12.597643 1.998237 2.5002503
-11.610373 1.9796331 2.5752473
-11.539753 1.893568 2.4983268
-12.622189 2.0313652 2.4302506
-12.520561 2.0734606 2.4302506
-12.300604 2.1583855 2.4473915
-11.639041 2.122426 2.5197239
-11.57391 2.035326 2.4602494
-12.488747 2.2057021 2.4002519
-12.086902 2.2994766 2.4159627
-11.898118 2.3520308 2.428582
-11.704623 2.2895467 2.4859028
-12.00833 2.4046969 2.4202485
-11.85297 2.4738595 2.408026
-11.773478 2.4648652 2.4216771
2.1941066 -12.624279 2.7802491
2.2052588 -12.625072 2.7252488
1.2908169 -12.449119 2.6677496
1.5087355 -12.432998 2.7412505
1.6885755 -12.439019 2.7356348
1.8943615 -12.445368 2.7225573
2.1039984 -12.504294 2.7075839
2.3010049 -12.502264 2.7020669
2.4795578 -12.51903 2.7042496
2.6305711 -12.47596 2.7402482
1.1947496 -12.223726 2.6977487
1.2850692 -12.271153 2.6431921
1.4994005 -12.29906 2.658145
1.7114782 -12.286601 2.661201
1.9005544 -12.299385 2.6752498
2.0916758 -12.295845 2.6981461
2.2653294 -12.297119 2.7102485
2.5129583 -12.296544 2.7517874
2.6543086 -12.252355 2.7789996
3.0386636 -12.285276 2.7902513
0.96326286 -12.033318 2.6942503
1.1111139 -12.12307 2.6983755
1.2868094 -12.158533 2.6427503
1.4903995 -12.124344 2.6190729
1.7043188 -12.10556 2.6462488
1.905764 -12.091095 2.6773088
2.096751 -12.095575 2.7050121
2.2644994 -12.11481 2.722748
2.5134308 -12.15956 2.7631068
2.7009284 -12.133647 2.77425
2.8324554 -12.127151 2.7802491
-0.37271288 -11.836598 2.7902513
0.28980142 -11.840591 2.7091384
0.47765023 -11.821454 2.7502491
0.88534391 -11.902692 2.68575
1.731611 -11.978079 2.6102509
1.9257838 -11.924228 2.6252501
2.1024525 -11.905137 2.6402507
2.2708457 -11.911858 2.6649559
2.4350176 -11.820933 2.7502503
2.9362674 -11.959677 2.7802491
-0.44286689 -11.680298 2.7221248
-0.30976337 -11.704862 2.6997747
-0.083130836 -11.647249 2.7220151
0.11904321 -11.714628 2.6922507
0.25049764 -11.773287 2.6431062
0.50970721 -11.742888 2.6713614
0.68638641 -11.696164 2.6902497
0.83227479 -11.744622 2.6825571
1.9731847 -11.716378 2.6002488
2.1112134 -11.708814 2.6146264
2.2570868 -11.659216 2.6402497
2.5306933 -11.653915 2.6902499
2.6743288 -11.660473 2.7069159
2.9324477 -11.64638 2.7320671
3.0811114 -11.69912 2.6955442
3.2899718 -11.660087 2.7445357
3.4093032 -11.612203 2.7802491
-0.50896889 -11.494582 2.6958749
-0.2383427 -11.586109 2.6152482
-0.12910759 -11.584159 2.6485834
1.941695 -11.570672 2.6002488
2.0888646 -11.553007 2.6075227
2.3130677 -11.545184 2.6588206
2.4341626 -11.56801 2.6562486
2.9268937 -11.586886 2.6422486
3.3289344 -11.493958 2.6452506
3.4775815 -11.47508 2.6791389
3.7537766 -11.496576 2.7102475
3.9006405 -11.433037 2.68275
4.0608306 -11.434334 2.7427487
-0.60872018 -11.214565 2.7052484
-0.57380837 -11.30582 2.6842506
3.5200493 -11.360675 2.6202507
3.6148782 -11.337633 2.6102509
3.9598038 -11.373353 2.6102509
4.1093082 -11.365546 2.6846941
4.2895432 -11.264323 2.680249
-0.64585859 -11.113291 2.7074718
0.75846255 -11.09204 2.6002488
0.80564082 -11.153678 2.6002488
4.3624849 -11.195735 2.6002488
4.5086546 -11.151425 2.6792493
4.6812882 -11.069095 2.6762488
-0.72410941 -10.89748 2.6970928
4.9776568 -10.930099 2.7502503
5.0204878 -10.863648 2.6202531
5.7767982 -10.826385 2.7462494
5.8368492 -10.826767 2.6669171
6.1099601 -10.811055 2.7035837
6.2575345 -10.805852 2.7102494
-0.81928408 -10.638277 2.6842489
-0.77773499 -10.756005 2.6942492
5.3362303 -10.729616 2.6382492
5.5151739 -10.692568 2.6965001
5.7478552 -10.704621 2.7009652
5.8198543 -10.76309 2.6242509
6.3779678 -10.783028 2.7402482
6.4635081 -10.75436 2.7152493
6.6719069 -10.738586 2.704536
6.8878074 -10.712555 2.7142501
7.096117 -10.687607 2.6880281
-0.86548764 -10.492421 2.6919892
-0.93716335 -10.286366 2.6920154
-1.0215664 -10.079742 2.7138212
-0.98663324 -10.137949 2.6388206
6.9921784 -10.057772 2.6052499
7.0875955 -10.115664 2.60725
-8.010273 -9.8344631 2.7377477
-7.9182897 -9.9060097 2.7238507
-7.7517977 -9.847003 2.7362487
-1.0689867 -9.8998346 2.6939347
7.0432205 -9.9641104 2.6122513
-8.0489664 -9.7007599 2.6965008
-7.8654914 -9.7122555 2.6265659
-7.6757836 -9.7300091 2.6842482
-7.5136342 -9.6711416 2.7449155
-7.3182907 -9.6236029 2.7827497
-1.138165 -9.7026424 2.6902502
-8.1280355 -9.4967585 2.6919899
-7.628273 -9.5598764 2.6262498
-7.4868026 -9.5386696 2.6738858
-7.2930665 -9.5023727 2.6972196
-7.1076264 -9.486228 2.7254498
-6.9580259 -9.451375 2.7652495
-1.2284782 -9.4668226 2.6996253
-1.1844736 -9.5781927 2.6959636
-8.2201042 -9.2573299 2.716248
-8.1762714 -9.3471441 2.6727507
-7.2732377 -9.3839521 2.6102509
-7.0828156 -9.3242559 2.6534073
-6.9090199 -9.2906914 2.6992154
-6.7291508 -9.2283382 2.7169156
-6.5518274 -9.2005901 2.7902513
-1.2918885 -9.2966805 2.6930277
-8.2687187 -9.1037197 2.7002499
-7.0607071 -9.1061401 2.62025
-6.9456525 -9.1905346 2.6102509
-6.6894808 -9.1818409 2.6702499
-6.5003495 -9.1071062 2.7031071
-6.2933869 -9.0667162 2.7067716
-6.1396265 -9.0422201 2.7173924
-4.8306723 -9.0180359 2.7752481
-4.6937885 -9.0371046 2.7669165
-4.5031652 -9.0149708 2.7377484
-4.2871552 -9.0288649 2.7662497
-4.1389351 -9.0156374 2.780251
-1.4006587 -9.0152111 2.7902513
-1.3592229 -9.1050844 2.703583
-8.3446178 -8.9086008 2.6906674
-6.1049457 -8.9757977 2.6591382
-5.8998542 -8.9323378 2.7169161
-5.6799154 -8.8394327 2.68275
-5.5252457 -8.8132486 2.7635825
-5.0779366 -8.8130569 2.7802491
-4.884728 -8.8839722 2.7588863
-4.7134466 -8.9099474 2.6799164
-4.5051332 -8.9052286 2.6531074
-4.3016424 -8.9078207 2.6686876
-4.1060891 -8.9075098 2.6871469
-3.9066803 -8.872982 2.6919167
-3.6975436 -8.8508072 2.7176406
-3.509567 -8.8305035 2.7433264
-3.3098047 -8.8148432 2.761678
-3.1171715 -8.8170052 2.7802491
-2.6009994 -8.8088541 2.7902513
-2.4811187 -8.8253441 2.7269151
-2.2887588 -8.8597383 2.7042499
-2.0986688 -8.8759365 2.6991973
-1.9177473 -8.8974628 2.7049167
-1.7119926 -8.9168663 2.7069159
-1.4560198 -8.9425316 2.7160833
-1.3994024 -8.9659824 2.6652513
-8.4230957 -8.6775455 2.7015827
-8.3899765 -8.7740507 2.6777508
-5.4716153 -8.7693872 2.6722472
-5.2682796 -8.72649 2.715251
-5.112246 -8.7406778 2.7012496
-4.8976507 -8.7075329 2.7024724
-4.783504 -8.7170763 2.6152499
-4.2941885 -8.7871571 2.6182511
-4.0814104 -8.7834492 2.62025
-3.8101933 -8.7901707 2.6002488
-3.6745551 -8.7741899 2.617393
-3.4916179 -8.7590103 2.6571255
-3.287941 -8.7295036 2.6678691
-3.0884681 -8.7015152 2.6734643
-2.9035578 -8.7001572 2.6950781
-2.7067318 -8.7299776 2.6940005
-2.5222449 -8.77948 2.656249
-8.4850454 -8.5011597 2.6978507
-4.8290186 -8.5952177 2.6302502
-3.0028636 -8.5964737 2.6002488
-2.8860607 -8.5805645 2.6182494
-2.7602048 -8.5760584 2.6222503
-8.616559 -8.2244215 2.7122483
-8.5691786 -8.3179045 2.6927505
-8.653616 -8.0973282 2.7074509
-8.7404728 -7.9007411 2.694097
-3.2212415 -7.8210158 2.6502481
-3.1028244 -7.8423209 2.6764996
-2.9827538 -7.8088226 2.7352471
-8.835824 -7.6885376 2.7202497
-8.7903748 -7.7682109 2.6552489
-3.4395227 -7.6119685 2.6302502
-3.292659 -7.6961117 2.672523
-3.1147895 -7.6945662 2.7311192
-2.9478855 -7.7492795 2.7669165
-8.9062548 -7.5061827 2.6927497
-3.6562748 -7.4318743 2.6162505
-3.5056365 -7.4855642 2.634625
-3.2934146 -7.4991331 2.7312493
-3.1490874 -7.5267153 2.7773921
-2.0755658 -7.478754 2.6869161
-9.0407696 -7.2651525 2.7061322
-8.9756126 -7.3637667 2.6875226
-3.8577237 -7.2419357 2.6231062
-3.6852312 -7.3111973 2.6473927
-3.4927948 -7.3026166 2.7095351
-3.3455117 -7.3616014 2.7522492
-2.0421357 -7.36725 2.6962509
-9.1263103 -7.0990453 2.6995373
-4.0484405 -7.0325522 2.6102509
-3.897022 -7.0973396 2.6458504
-3.7016835 -7.0983233 2.7148652
-3.545064 -7.1045671 2.7610826
-1.8217165 -7.0383649 2.7152486
-9.2280836 -6.8730273 2.7216136
-9.1782503 -6.9363203 2.6342504
-4.0962143 -6.8876634 2.6269176
-3.904671 -6.8997312 2.6844802
-3.7069035 -6.8979068 2.7493801
-3.5650828 -6.9604225 2.7869174
-1.8201087 -6.9132237 2.7227504
-1.7921752 -6.8592601 2.6352484
-9.2849894 -6.694962 2.6998336
-4.2658854 -6.6970444 2.62025
-4.1049705 -6.7050571 2.6658506
-3.8939292 -6.692975 2.7358494
-3.7567019 -6.7126703 2.7791383
-1.8216485 -6.7097106 2.7535832
-1.7731085 -6.6818938 2.6602495
-9.3379221 -6.5032439 2.6906073
-4.2361112 -6.544198 2.666249
-4.0985065 -6.4980235 2.7194505
-3.9159553 -6.5436363 2.7702506
-1.8204143 -6.4909711 2.7693388
-1.7634902 -6.5072436 2.6666143
-9.3513937 -6.2891636 2.697942
-4.0478048 -6.3612061 2.7102513
-3.8956227 -6.3192172 2.735805
-3.7204056 -6.2439938 2.6709175
-3.5402853 -6.2145753 2.7177489
-1.8603405 -6.2885704 2.7027504
-1.7828412 -6.3809443 2.6302514
-9.4229794 -6.0891547 2.7092969
-9.3931561 -6.1561766 2.6202493
-3.4750428 -6.1813273 2.6762497
-3.2955289 -6.1378179 2.7067499
-3.1057255 -6.0851774 2.7067504
-2.926851 -6.0443683 2.7283752
-2.7589819 -6.0059533 2.7435825
-2.0074477 -6.0085506 2.7502503
-1.9429786 -6.1061211 2.6987689
-9.4934254 -5.9034586 2.6939542
-2.8497119 -5.9872503 2.644249
-2.6877689 -5.9572134 2.6735842
-2.4925637 -5.8983045 2.69525
-2.3016784 -5.84305 2.7132497
-2.0628486 -5.8512812 2.7492499
-1.9843783 -5.9205222 2.6544166
-9.533143 -5.7049866 2.6877496
-3.6335411 -5.6105323 2.6002488
-2.2404432 -5.7857556 2.6152482
-2.0870759 -5.7640486 2.6657045
-9.6145267 -5.4780197 2.7146251
-9.5821905 -5.5408444 2.6669168
-3.8362508 -5.4347239 2.6002488
-3.6901755 -5.47227 2.6161332
-3.5351088 -5.4714437 2.6385825
-9.6884737 -5.2962303 2.6943133
-4.0273438 -5.2216311 2.6052499
-3.8905275 -5.2894354 2.6188872
-3.6994622 -5.3000417 2.6544163
-3.4923685 -5.3087196 2.6950648
-3.369601 -5.2547531 2.6779418
-9.8172264 -5.0365701 2.7702496
-9.7684374 -5.1070747 2.6859653
-5.2867699 -5.0686116 2.6102493
-5.1117444 -5.0809007 2.6242504
-4.8975177 -5.0589132 2.6322501
-4.6977997 -5.0402284 2.6335833
-4.5203505 -5.029995 2.6216786
-4.2534318 -5.0323114 2.6116796
-4.0987024 -5.0807128 2.6267502
-3.8985388 -5.0985241 2.663213
-3.6956842 -5.0970454 2.7084317
-3.5057704 -5.0980425 2.7556667
-3.3050768 -5.0994825 2.7005723
-9.8400259 -4.8766026 2.7011588
-9.7963247 -4.9737926 2.6569173
-5.4365301 -4.831182 2.6077504
-5.3058147 -4.9028664 2.6385839
-5.0970063 -4.9154963 2.6876419
-4.9055762 -4.9120693 2.7165003
-4.6968765 -4.8874102 2.7302504
-4.5064096 -4.8969111 2.7072871
-4.3220782 -4.8927174 2.6826315
-4.0857334 -4.8994513 2.6915543
-3.9060125 -4.9194722 2.7084317
-3.710933 -4.8986912 2.7597957
-3.5408645 -4.9562635 2.7812498
-3.2424805 -4.919982 2.7185829
-3.1157548 -4.8716998 2.6763613
-2.957232 -4.8541436 2.6873915
-2.7085817 -4.8341327 2.6185846
-9.9106531 -4.6945143 2.6899385
-5.6765714 -4.6501727 2.61025
-5.5019174 -4.6922998 2.6288218
-5.2909613 -4.7023339 2.6717317
-5.0931773 -4.6997848 2.7298336
-4.9119706 -4.711318 2.7732501
-4.6959248 -4.787796 2.7869174
-4.4702387 -4.7664728 2.7852502
-4.2797494 -4.7777691 2.7619169
-4.1116066 -4.7670522 2.7613611
-3.9311695 -4.7831135 2.7769163
-3.0925434 -4.7663879 2.761678
-2.9055953 -4.7548232 2.7622497
-2.7194715 -4.6986265 2.6829429
-10.022415 -4.4615602 2.7273922
-9.980011 -4.5383778 2.6833265
-6.2583399 -4.4085007 2.6002488
-6.1044936 -4.4454384 2.6122503
-5.9044094 -4.4679689 2.6148646
-5.7059307 -4.5019045 2.6340969
-5.4899139 -4.505383 2.6809647
-5.301301 -4.4973545 2.7191386
-5.1049657 -4.5014734 2.7579775
-4.9612865 -4.5315027 2.7827494
-2.8503635 -4.4599042 2.717473
-2.7563484 -4.5402503 2.6746256
-10.092607 -4.3074989 2.6927505
-7.080812 -4.228549 2.6022491
-6.8846021 -4.2423301 2.6084313
-6.6780558 -4.2720666 2.6130278
-6.4931855 -4.3022404 2.6319892
-6.3066602 -4.30404 2.6462512
-6.1015124 -4.297153 2.6641788
-5.9028907 -4.2937407 2.6817889
-5.6935134 -4.3020029 2.6933541
-5.5016294 -4.2986341 2.7198651
-5.3088136 -4.3015361 2.7620687
-5.1544433 -4.3395596 2.7827494
-2.9263327 -4.3258557 2.6769164
-10.228078 -4.0464263 2.7149162
-10.167406 -4.1422453 2.6764035
-7.6984086 -4.0110002 2.6069169
-7.5052829 -4.0693097 2.6124725
-7.3030696 -4.0943913 2.6182508
-7.0945997 -4.096684 2.6371474
-6.8948555 -4.1025987 2.65505
-6.6952772 -4.0882683 2.6737978
-6.4992595 -4.1057549 2.6868017
-6.3030868 -4.0972791 2.7205949
-6.1060166 -4.1025443 2.745563
-5.914084 -4.112402 2.7561595
-5.6997271 -4.1326175 2.7652497
-5.4943161 -4.1407394 2.766916
-5.3278828 -4.1540618 2.7802505
-2.911742 -4.0527315 2.7012496
-10.312377 -3.8951719 2.6902499
-8.2340813 -3.8414173 2.6069167
-8.0986214 -3.8556635 2.6075227
-7.8899579 -3.893106 2.6195104
-7.7042899 -3.8996465 2.629096
-7.4960642 -3.9103057 2.658464
-7.2873721 -3.9007106 2.6878359
-7.0941653 -3.8909152 2.7145972
-6.8986568 -3.9122453 2.7209909
-6.7072606 -3.8991137 2.755435
-6.5008454 -3.9106276 2.7587683
-6.3092566 -3.9641623 2.7712493
-6.1333003 -3.9693654 2.7845356
-3.0985625 -3.886766 2.6902504
-2.979219 -3.9865136 2.7102494
-10.426158 -3.6582706 2.7202492
-10.377525 -3.7388721 2.6827495
-8.8298874 -3.6137602 2.6069169
-8.6851959 -3.6386142 2.62025
-8.5005846 -3.6527057 2.6275833
-8.2774925 -3.6741896 2.6546941
-8.0895395 -3.7047646 2.6615007
-7.8941202 -3.7040086 2.6772873
-7.6945362 -3.6980631 2.6944432
-7.5034809 -3.6969888 2.7190962
-7.2902293 -3.6853399 2.7562499
-7.1097169 -3.7236791 2.7712507
-6.9088917 -3.7525227 2.7785826
-6.7650337 -3.7470548 2.7902515
-3.2202506 -3.6704044 2.7123923
-3.1727402 -3.7266214 2.6527488
-10.50848 -3.5071013 2.6990387
-9.202013 -3.4034936 2.6002488
-9.085906 -3.4827905 2.6079423
-8.8908949 -3.495513 2.6554356
-8.7029467 -3.509866 2.6724722
-8.4967089 -3.4999938 2.6899371
-8.3015041 -3.5015323 2.7080286
-8.1042252 -3.4946628 2.7332504
-7.8999372 -3.5031412 2.7423186
-7.7008719 -3.5061567 2.7385256
-7.503294 -3.4974725 2.7536981
-7.3181691 -3.5068061 2.7734318
-3.2824075 -3.506345 2.6941791
-10.640443 -3.2818401 2.7031074
-10.5841 -3.3698335 2.6682496
-10.212767 -3.2106099 2.6602502
-9.901783 -3.2192607 2.6042495
-9.6787319 -3.2530458 2.6102498
-9.497611 -3.2729974 2.6239347
-9.2990332 -3.2966566 2.6248333
-9.104538 -3.2831421 2.6596951
-8.9028635 -3.2924101 2.7091391
-8.6945572 -3.2959092 2.7218494
-8.5005865 -3.3073833 2.7269166
-8.3086195 -3.3072433 2.7558055
-8.1092911 -3.3405352 2.7820673
-7.8956952 -3.3724766 2.7852499
-7.6823339 -3.3747506 2.7852499
-7.5147872 -3.382921 2.7902515
-7.2188888 -3.3830276 2.7902513
-3.4287586 -3.2596893 2.709661
-3.3679602 -3.3390722 2.6702502
-10.727938 -3.1023993 2.696008
-10.301657 -3.0482695 2.6272497
-10.084842 -3.0850115 2.6460836
-9.8933172 -3.1074319 2.6517889
-9.7104416 -3.0877292 2.6717315
-9.5016489 -3.1069176 2.6889167
-9.2941608 -3.1061208 2.6889174
-9.1001759 -3.0951917 2.7185259
-8.8967056 -3.1013513 2.7252491
-8.7129107 -3.0980747 2.7373326
-8.5005112 -3.1403005 2.7708383
-8.3446627 -3.1999025 2.7902513
-3.4852836 -3.0975041 2.6989172
-10.841901 -2.8894212 2.7040002
-10.7863 -2.9692168 2.6377511
-10.445968 -2.8566597 2.6515
-10.292299 -2.9030168 2.6583264
-10.099212 -2.8943796 2.6928427
-9.9086761 -2.9099531 2.7326496
-9.7003098 -2.8880758 2.7427497
-9.4957685 -2.8965824 2.7354341
-9.301446 -2.8995156 2.7455828
-9.1019688 -2.8966258 2.7650506
-8.9118032 -2.9187155 2.7607057
-8.7231131 -2.9395242 2.7779415
-8.5588522 -2.9963775 2.7902513
-3.6256764 -2.8439279 2.7242506
-3.5452721 -2.9366987 2.6819904
-10.912836 -2.692661 2.6938221
-10.757308 -2.6761725 2.6388218
-10.482433 -2.6927185 2.6807268
-10.312967 -2.7095654 2.7073336
-10.105177 -2.6963248 2.7495604
-9.9165878 -2.7209978 2.7757502
-9.6885576 -2.7538731 2.773886
-9.5108366 -2.7493849 2.7719171
-9.298213 -2.7635992 2.7802496
-8.9607172 -2.7839978 2.7902513
-3.6745787 -2.7018652 2.6909912
-3.5861194 -2.7983179 2.6002488
-11.025488 -2.4644976 2.7242501
-10.925175 -2.5228875 2.6512511
-10.678572 -2.4925396 2.7246933
-10.506037 -2.5161793 2.7498496
-10.320354 -2.5570319 2.7609637
-10.162178 -2.561868 2.7902513
-3.8155639 -2.409889 2.7602501
-3.7524326 -2.5065544 2.6950498
-11.068637 -2.2933125 2.6993124
-10.96048 -2.3536592 2.6245351
-10.720212 -2.3200078 2.7782516
-3.8415844 -2.2923675 2.7130506
-3.782609 -2.3457267 2.6269159
-11.22221 -2.024991 2.7091386
-11.141178 -2.1260321 2.6771734
-4.0198884 -2.0254862 2.7119162
-3.9267356 -2.1206536 2.684536
-18.479059 -1.8594674 2.6652498
