# .PCD v0.7 - Point Cloud Data file format
VERSION 0.7
FIELDS x y z
SIZE 4 4 4
TYPE F F F
COUNT 1 1 1
WIDTH 1497
HEIGHT 1
VIEWPOINT 0 0 0 1 0 0 0
POINTS 1497
DATA ascii
-4.7030368 -3.6037984 1.7921498
-4.722827 -3.6039023 1.7901142
-4.7634249 -3.6036065 1.7859123
-4.7875323 -3.6032233 1.7834065
-4.866447 -3.6021099 1.7752113
-4.9080634 -3.6013098 1.7708786
-4.9496779 -3.6005104 1.7665461
-5.0110841 -3.5998142 1.7601779
-5.0384884 -3.5994489 1.757333
-5.1031923 -3.5987701 1.7506255
-5.2092686 -3.5957618 1.7395325
-5.2310929 -3.5948584 1.7372355
-5.2716918 -3.5945621 1.7330334
-5.4589105 -3.5809879 1.7130327
-5.5213342 -3.579788 1.7065338
-5.536685 -3.5796142 1.7049417
-5.6462331 -3.5873625 1.6940398
-5.6571474 -3.58691 1.6928911
-5.7021098 -3.5864336 1.6882298
-5.7284465 -3.5862665 1.6855054
-5.7443085 -3.58584 1.6838477
-5.7664256 -3.5856168 1.6815553
-5.7799582 -3.5855181 1.6801548
-5.8611546 -3.5849259 1.6717508
-5.9334726 -3.5837779 1.6642342
-5.9740696 -3.5834823 1.6600323
-5.9938602 -3.5835862 1.6579967
-6.0295115 -3.5832636 1.6543034
-6.0552664 -3.5828898 1.6516283
-6.075057 -3.5829937 1.6495926
-6.1661482 -3.5824535 1.6401709
-6.1978674 -3.5816021 1.6368563
-6.2285709 -3.5812535 1.633672
-6.258935 -3.5810738 1.6305315
-6.2750874 -3.5813282 1.6288787
-6.2939062 -3.5810876 1.6269256
-6.3087487 -3.5811656 1.6253989
-6.3800497 -3.5805213 1.6180128
-6.473176 -3.5789738 1.6083298
-6.4929657 -3.5790777 1.6062942
-6.5177031 -3.5792077 1.6037498
-6.5335646 -3.5787811 1.6020921
-6.5939522 -3.5785892 1.5958546
-6.628727 -3.5762253 1.5921477
-6.6495342 -3.5758257 1.5899814
-6.6703415 -3.5754259 1.5878152
-6.7007904 -3.5752034 1.5846636
-6.7233095 -3.5751941 1.5823408
-6.741643 -3.5747817 1.5804291
-6.8040667 -3.5735817 1.57393
-6.8694029 -3.573415 1.5671835
-6.8875437 -3.5735104 1.5653175
-6.912693 -3.5736423 1.5627307
-6.9337206 -3.5737529 1.5605677
-6.9535103 -3.5738568 1.5585321
-7.0347052 -3.5732653 1.5501285
-7.0698471 -3.573195 1.5465007
-7.1169195 -3.5721693 1.5415938
-7.1377277 -3.5717688 1.5394274
-7.158535 -3.5713692 1.5372611
-7.1981153 -3.5715771 1.5331899
-7.2104836 -3.5716419 1.5319177
-7.2278004 -3.5717328 1.5301365
-7.2486086 -3.5713325 1.5279701
-7.3100138 -3.570637 1.5216019
-7.3308229 -3.5702364 1.5194355
-7.4228792 -3.5592182 1.5093791
-7.5774632 -3.5669484 1.4938319
-7.6190796 -3.5661483 1.4894991
-7.6815033 -3.5649483 1.4830002
-7.7089071 -3.5645833 1.4801553
-7.7429075 -3.5642529 1.4766321
-7.785677 -3.5637829 1.4721973
-7.8092618 -3.5635824 1.4697548
-7.8251214 -3.5631568 1.4680974
-7.8488884 -3.5629418 1.4656354
-7.8756151 -3.5629122 1.4628776
-7.9182491 -3.5616086 1.4584143
-8.0441132 -3.5587049 1.4452858
-8.1430626 -3.5592246 1.4351078
-8.389122 -3.554575 1.4094945
-8.4640589 -3.5537808 1.4017258
-8.6404171 -3.5506327 1.3833774
-8.7434387 -3.5491362 1.3726765
-8.7543516 -3.5486844 1.371528
-8.7959681 -3.5478842 1.3671954
-8.8474789 -3.5471361 1.3618449
-8.8643293 -3.5467155 1.3600856
-8.9593773 -3.546196 1.3502569
-8.9824667 -3.5463171 1.3478819
-9.1296272 -3.5460722 1.3326929
-9.140542 -3.5456197 1.3315442
-9.251421 -3.5451841 1.3200871
-9.2712116 -3.5452881 1.3180515
-9.3019152 -3.5449395 1.3148671
-9.3251972 -3.5445528 1.3124464
-9.383112 -3.544347 1.3064632
-9.5168352 -3.5425036 1.2925783
-9.5693636 -3.5412519 1.2870972
-9.6000671 -3.5409033 1.283913
-9.6307707 -3.5405555 1.2807288
-9.6822805 -3.5398073 1.2753785
-9.845706 -3.5476234 1.2589236
-10.062419 -3.5990551 1.2392005
-10.083228 -3.5986547 1.237034
-10.186301 -3.6071332 1.226837
-10.217003 -3.6067855 1.2236531
-10.246688 -3.6069415 1.2205997
-10.277392 -3.6065929 1.2174153
-10.329921 -3.605341 1.2119342
-10.392344 -3.604141 1.2054353
-10.422029 -3.6042969 1.2023818
-10.488892 -3.603375 1.1954393
-10.504243 -3.6032009 1.1938473
-10.52898 -3.6033309 1.1913028
-10.548139 -3.6029224 1.1893061
-10.569578 -3.6030352 1.1871009
-10.595334 -3.6026607 1.1844256
-10.631494 -3.6020865 1.1806672
-10.657758 -3.6014607 1.1779267
-10.729059 -3.6008165 1.1705406
-10.780569 -3.600069 1.1651902
-10.801376 -3.5996685 1.1630239
-10.857835 -3.598947 1.1571646
-10.872678 -3.599025 1.1556379
-10.883592 -3.5985725 1.1544892
-10.904399 -3.5981727 1.1523229
-10.93612 -3.5973206 1.149008
-11.008438 -3.5961726 1.1414914
-11.038123 -3.5963285 1.138438
-11.068826 -3.5959809 1.1352539
-11.07974 -3.5955284 1.1341052
-11.110441 -3.5951805 1.1309212
-11.131249 -3.5947809 1.128755
-11.146091 -3.5948589 1.1272283
-11.160934 -3.5949368 1.1257014
-11.180725 -3.5950408 1.1236658
-11.212446 -3.5941887 1.120351
-11.223358 -3.5937369 1.1192025
-11.264975 -3.5929368 1.1148698
-11.284764 -3.5930407 1.1128342
-11.315467 -3.5926921 1.1096501
-11.357083 -3.5918927 1.1053175
-11.386768 -3.5920486 1.102264
-11.447157 -3.591856 1.0960264
-11.467964 -3.5914562 1.0938601
-11.487754 -3.5915601 1.0918245
-11.551195 -3.5898566 1.0851949
-11.582916 -3.5890045 1.0818801
-11.603724 -3.5886047 1.0797138
-11.616916 -3.5886741 1.0783569
-11.633409 -3.5887606 1.0766604
-11.658146 -3.5888906 1.0741159
-11.712568 -3.5891764 1.0685179
-11.743272 -3.5888278 1.0653337
-11.759764 -3.5889144 1.0636374
-11.78387 -3.5885322 1.0611318
-11.813556 -3.5886881 1.0580783
-11.988896 -3.5860436 1.0398606
-12.019599 -3.585696 1.0366765
-12.050301 -3.5853481 1.0334926
-12.102831 -3.5840955 1.0280112
-12.203816 -3.5836079 1.0175717
-12.264205 -3.5834153 1.0113342
-12.326629 -3.5822153 1.0048351
-12.367226 -3.5819194 1.0006334
-12.458318 -3.5813794 0.99121153
-12.507792 -3.5816391 0.98612261
-12.565126 -3.5829589 0.98027712
-12.595828 -3.5826113 0.97709316
-12.62755 -3.581759 0.97377813
-12.740467 -3.5803146 0.96205944
-12.821662 -3.5797229 0.95365566
-12.872156 -3.5794785 0.94843578
-12.912754 -3.5791826 0.94423383
-12.943456 -3.5788348 0.94104987
-12.964265 -3.5784345 0.93888342
-12.985072 -3.5780346 0.93671715
-13.026688 -3.5772345 0.93238449
-13.041531 -3.5773125 0.93085778
-13.056373 -3.5773904 0.92933106
-13.077181 -3.5769906 0.92716479
-13.097988 -3.5765903 0.92499852
-13.125395 -3.576225 0.92215341
-13.159394 -3.5758946 0.91863024
-13.230696 -3.5752504 0.91124409
-13.262416 -3.5743983 0.9079293
-13.295156 -3.5730424 0.90448368
-13.459582 -3.5708504 0.88741457
-13.550673 -3.5703101 0.87799287
-13.570463 -3.5704141 0.87595731
-13.59622 -3.5700402 0.87328196
-13.621295 -3.5700023 0.87069404
-13.641764 -3.5697706 0.86857128
-13.680326 -3.570482 0.8646307
-13.702152 -3.5695779 0.86233366
-13.715685 -3.5694792 0.86093307
-13.74275 -3.5692821 0.85813177
-13.784366 -3.5684819 0.8537991
-13.875458 -3.5679417 0.8443774
-13.915039 -3.5681496 0.84030604
-13.94574 -3.5678017 0.83712208
-13.966547 -3.5674019 0.83495581
-13.987356 -3.5670016 0.8327893
-14.018059 -3.5666537 0.82960522
-14.048761 -3.5663061 0.82642126
-14.082764 -3.5659747 0.82289761
-14.129957 -3.5657136 0.81801724
-14.1448 -3.5657916 0.81649053
-14.159643 -3.5658696 0.81496382
-14.18045 -3.56547 0.81279761
-14.261646 -3.5648775 0.80439377
-14.29133 -3.5650334 0.80134034
-14.332947 -3.5642333 0.79700756
-14.353756 -3.5638335 0.79484123
-14.464636 -3.5633972 0.78338397
-14.526043 -3.562701 0.77701569
-14.669661 -3.5609095 0.76211298
-14.80921 -3.5611327 0.74773276
-14.840931 -3.5602803 0.74441791
-14.892441 -3.5595329 0.73906761
-15.001612 -3.5587058 0.72776675
-15.02413 -3.5586967 0.72544402
-15.037323 -3.5587661 0.72408688
-15.10038 -3.5580785 0.71754885
-3.8374367 0.96447122 0.44008666
-3.7747383 0.97585797 0.46141213
-3.6250787 0.99082386 0.51036227
-3.5152512 1.0307351 0.55091041
-3.5033391 1.0317181 0.55477327
-3.4850636 1.0308316 0.56031674
-3.2813346 1.0344621 0.62427437
-3.1039519 1.0665435 0.68458581
-3.0527184 1.0671775 0.70062518
-3.0316727 1.067715 0.70725811
-2.5518143 1.1376424 0.86771744
-2.5271711 1.1348884 0.8749432
-2.3715279 1.1429303 0.92464751
-2.1689255 1.1342683 0.98628891
-2.1570175 1.1352491 0.99015015
-2.1057842 1.1358832 1.0061895
-1.9950702 1.1562501 1.043888
-1.7131398 1.2084301 1.1399367
-1.6300933 1.2485272 1.1721834
-1.5376511 1.2697828 1.2043399
-1.4754853 1.2683257 1.2234458
-1.2824423 1.3073196 1.2897342
-1.2197442 1.3187064 1.3110597
-1.1122653 1.309981 1.3430995
-0.97198558 1.3359344 1.3908887
-0.9370544 1.3400891 1.4024197
-0.90642792 1.3304114 1.4103996
-0.39547774 1.2308295 1.5534236
-0.33910042 1.2564673 1.5750618
-0.223702 1.3366717 1.6237864
-0.13518503 1.4310499 1.6664155
-0.083841562 1.4917411 1.6920931
-0.03671214 1.5202655 1.7113159
0.044261456 1.5307658 1.7381847
0.089042366 1.5106531 1.748899
0.29820406 1.4577926 1.8055129
0.38665348 1.4419956 1.830502
0.58352405 1.4390771 1.8912787
0.62832803 1.4384624 1.9051182
0.66034311 1.4384701 1.9150789
0.73336071 1.423355 1.9353764
0.75455457 1.4206351 1.9415345
0.77327281 1.4099766 1.9456532
0.80831283 1.3835111 1.9523213
0.82712346 1.3406707 1.9513221
0.83060509 1.3253341 1.9499526
0.83328146 1.2854946 1.9444141
0.91957968 0.96293759 1.9196782
0.9537788 0.9125253 1.9222553
0.9555487 0.90091634 1.9209495
0.9642207 0.84532261 1.9147568
0.95926064 0.80283546 1.9064194
0.9480502 0.73729169 1.8924506
0.94410282 0.68131876 1.8822715
1.0974934 0.16850141 1.8479812
1.124284 0.1306369 1.8502603
1.1361072 0.10900348 1.8504788
1.176939 0.0079171062 1.8470156
1.1976671 -0.14262414 1.8293898
1.7848523 -0.678931 1.9262902
1.8074565 -0.68404055 1.9325049
2.1149395 -0.68402648 2.0281606
2.3211188 -0.60627156 2.1047339
2.2676344 -0.72264111 2.0694864
2.257056 -0.75293815 2.0613508
2.1935313 -0.88460982 2.0205326
2.1337287 -1.025723 1.9793627
2.1175442 -1.067547 1.9676396
2.0853615 -1.1486686 1.9446554
2.0515599 -1.2443378 1.9188411
2.04304 -1.2698617 1.912109
2.0237677 -1.3094879 1.8997769
1.9923246 -1.4068971 1.874418
1.9814508 -1.4306794 1.8672321
1.9439158 -1.5087581 1.8430696
1.8901119 -1.6013672 1.8115222
1.8579302 -1.6824894 1.7885382
1.839376 -1.7334591 1.7746154
1.8201816 -1.803902 1.7573794
1.8054779 -1.8437498 1.746433
1.7856464 -1.933663 1.7258852
1.7590907 -2.0526674 1.6985933
1.756124 -2.0734174 1.6943521
1.7459846 -2.1134889 1.6847898
1.6481724 -2.3423645 1.6177609
1.6371508 -2.3628898 1.61105
1.6229129 -2.3930118 1.6018039
1.5970497 -2.4079418 1.5913706
1.5640421 -2.4127743 1.5803297
1.4665089 -2.3932195 1.5531156
1.3007684 -2.3686004 1.5054933
1.0725982 -2.4103703 1.4278333
0.75938267 -2.3663206 1.3374408
0.63423449 -2.3543887 1.3004172
0.52174789 -2.3356671 1.2684182
0.43900043 -2.3070791 1.2472484
0.37317431 -2.2875042 1.2299012
0.31970286 -2.2767184 1.2149919
0.2378428 -2.2676744 1.1909727
0.1281265 -2.2475286 1.1600633
0.0024611354 -2.2153003 1.1261244
-0.1739603 -2.2008903 1.0735468
-0.2017874 -2.1972029 1.0654799
-0.26266047 -2.1727927 1.0504467
-0.30287331 -2.1529016 1.041118
-0.51544845 -2.049366 0.99154609
-0.55234671 -2.036557 0.98211598
-0.6222797 -1.9677373 0.97136623
-0.75067103 -1.8129104 0.95618498
-0.80413139 -1.7711188 0.94623739
-0.82878989 -1.7534432 0.94139308
-0.88534951 -1.7158881 0.92980397
-0.97562522 -1.664317 0.90996754
-1.0464603 -1.6347457 0.89266074
-1.0599266 -1.6289575 0.88939714
-1.0988557 -1.6142637 0.8796367
-1.185515 -1.5709265 0.85960859
-1.3964813 -1.4665788 0.81066704
-1.5152886 -1.4341438 0.77889472
-1.584022 -1.3884926 0.76481318
-1.6814942 -1.3121928 0.74669266
-1.7716184 -1.2638768 0.72638291
-1.8280945 -1.2204454 0.7157594
-1.9130626 -1.1635716 0.69842213
-1.9404702 -1.1416669 0.69339895
-2.0103076 -1.071583 0.68288118
-2.0398498 -1.0294902 0.68042231
-2.1281178 -0.93559802 0.66797835
-2.1981521 -0.87202394 0.65635824
-2.2430212 -0.82676315 0.64963806
-2.354522 -0.72374952 0.63142538
-2.4259677 -0.64949286 0.6210745
-2.4656889 -0.59034938 0.61817586
-2.5010011 -0.54799581 0.61396372
-2.5593703 -0.45119488 0.61128604
-2.5789058 -0.39343292 0.61444587
-2.6112204 -0.32205239 0.61580825
-2.6404355 -0.24750535 0.61864114
-2.6588485 -0.18921311 0.62223494
-2.6866455 -0.079700351 0.63110059
-2.8181045 0.12199023 0.62245923
-2.8520036 0.19782653 0.62404126
-2.8597434 0.21770331 0.62481219
-3.0742893 0.55428779 0.61189538
-3.1591189 0.63902819 0.59905756
-3.4590988 0.748757 0.52328569
-3.5544257 0.76358914 0.49600279
-3.6538694 0.78135169 0.46790791
-3.7932611 0.81918788 0.43059582
-3.8389285 0.85884488 0.42273116
-3.8536322 0.88149703 0.42177951
-3.8845699 0.93594456 0.42086232
-3.8644068 0.95602858 0.43034655
-0.73492783 -2.5612364 1.8671054
-0.72556138 -2.5320425 1.8672113
-0.60900199 -2.5100079 1.8851494
-0.51459908 -2.4861104 1.8993828
-0.44995609 -2.4695795 1.9091213
-0.41518733 -2.4721544 1.9149175
-0.33238477 -2.471498 1.9283909
-0.25331396 -2.4647174 1.9409573
-0.23176108 -2.4621818 1.9443491
-0.19173743 -2.4621887 1.9508774
-0.12958997 -2.4718349 1.9614836
0.1043592 -2.4590328 1.9990177
0.14989492 -2.4577 2.0063798
0.23583019 -2.4629791 2.0206532
0.26018393 -2.4627862 2.024616
0.34917131 -2.4974835 2.0408196
0.36857659 -2.5073063 2.0444632
0.41697529 -2.5468283 2.0542817
0.51970494 -2.6181643 2.0745113
0.83321744 -3.411006 2.1642573
0.85585767 -3.422466 2.1685081
0.88477302 -3.4621422 2.1751566
0.88782805 -3.4915614 2.1770875
0.90503192 -3.5807266 2.1842358
0.88883322 -3.5803688 2.1815763
0.8401258 -3.5807548 2.1736507
0.80274659 -3.5815372 2.1675923
0.77027524 -3.5817945 2.1623087
0.74271166 -3.5815268 2.1578
0.71348661 -3.5817583 2.1530445
0.65028322 -3.5808017 2.1426895
0.61947393 -3.5805602 2.1376526
0.58635312 -3.5808227 2.1322632
0.5220598 -3.5813322 2.1218016
0.49283564 -3.5815637 2.1170464
0.42306054 -3.5816309 2.1056693
0.40199143 -3.5813117 2.1022172
0.29823709 -3.5801909 2.0852401
0.28041491 -3.5798457 2.0823164
0.25987571 -3.5796847 2.0789585
0.21396369 -3.5789149 2.0714328
0.17938001 -3.5785415 2.065774
0.15234601 -3.5784318 2.0613592
0.12312185 -3.5786636 2.0566039
0.10205281 -3.5783441 2.0531521
0.076984845 -3.5615706 2.0482464
0.060097039 -3.5454218 2.0447056
-0.03503006 -3.4649296 2.0252702
-0.11871905 -3.3881137 2.0078793
-0.14329854 -3.3647428 2.0027323
-0.22583112 -3.3031547 1.9862716
-0.27183789 -3.2671826 1.977016
-0.31057307 -3.2375603 1.9692556
-0.32510746 -3.227699 1.9664047
-0.37029922 -3.1976418 1.9575701
-0.42271107 -3.1629138 1.9473304
-0.44250348 -3.1444042 1.9432007
-0.49457979 -3.0993497 1.9325128
-0.54441082 -3.0394003 1.9214658
-0.57823563 -3.004751 1.9142613
-0.59251177 -2.9613957 1.9098215
-0.62404424 -2.8495097 1.8992296
-0.66699564 -2.7486281 1.8873112
-0.7053439 -2.6691215 1.8771846
-14.901811 1.9195839 -1.0027306
-15.032342 2.0155118 -1.0521104
-15.115423 2.3561561 -1.1027128
-15.123446 2.4057429 -1.1087438
-15.147875 2.6608517 -1.1342484
-15.155506 2.7224481 -1.1409746
-15.16059 2.7635114 -1.1454576
-15.163137 2.7840436 -1.1477009
-15.168424 2.8151488 -1.1515673
-15.170769 2.8456399 -1.1544272
-15.179526 2.9974711 -1.1677107
-15.184413 3.0484931 -1.1728119
-15.189301 3.0995154 -1.1779134
-15.191842 3.1200466 -1.1801547
-15.204158 3.2426221 -1.1925987
-15.153294 3.2324426 -1.1752224
-15.012088 3.2321899 -1.1289032
-14.756372 3.2509942 -1.0463428
-14.711298 3.2509787 -1.0315617
-14.605928 3.2609017 -0.99769127
-14.528156 3.2492759 -0.97139227
-14.321362 3.2278557 -0.90211511
-14.291311 3.227845 -0.89226055
-14.258319 3.2272191 -0.88139927
-14.169943 3.2165129 -0.85168636
-14.144413 3.2164021 -0.8433075
-14.102383 3.2159774 -0.8294965
-14.042188 3.220937 -0.81009853
-13.891441 3.2457805 -0.76237202
-13.786475 3.2357872 -0.72726798
-13.66678 3.2148056 -0.68658066
-13.444263 3.2242796 -0.6142664
-13.417164 3.2248862 -0.60542226
-13.357268 3.2149079 -0.58509815
-13.272036 3.1988134 -0.55604637
-13.261631 3.1937284 -0.55228603
-13.217058 3.1727726 -0.53623343
-13.147966 3.1019163 -0.50871897
-13.088307 3.0109427 -0.48291811
-13.026691 2.9326963 -0.45734832
-13.012166 2.9117491 -0.45114896
-12.841564 2.7553499 -0.38448301
-12.463917 2.7137504 -0.25779867
-12.40067 2.7230709 -0.23769909
-12.325146 2.7429616 -0.21429846
-12.301089 2.7431588 -0.20642379
-12.223127 2.7335849 -0.18020335
-12.187197 2.7244356 -0.16779414
-12.028937 2.6748006 -0.1124967
-11.941753 2.6674805 -0.08340688
-11.737892 2.6545815 -0.015675709
-11.65658 2.6643074 0.010319844
-11.439339 2.7127929 0.078228965
-11.321875 2.7312317 0.1154813
-11.129304 2.7456944 0.17763396
-11.048091 2.7504411 0.20393842
-10.957544 2.7703259 0.23226529
-10.831874 2.7412317 0.27546811
-10.771978 2.7312534 0.29579231
-10.58874 2.730576 0.355923
-10.510379 2.7409191 0.3809087
-10.459517 2.7307386 0.39828444
-10.338161 2.7115011 0.43939659
-10.205335 2.6630013 0.48627672
-10.097622 2.6424334 0.5230065
-10.024383 2.6228023 0.5483681
-9.9434748 2.612612 0.57559681
-9.8908405 2.6131067 0.59282172
-9.8217144 2.6132896 0.61547589
-9.8097305 2.6128745 0.61943388
-9.6512642 2.5731955 0.67411649
-9.5041771 2.5638044 0.72299075
-9.4861097 2.5642087 0.72888732
-9.4741306 2.5637946 0.73284364
-9.448596 2.5636828 0.74122417
-9.2400732 2.5292203 0.81196272
-9.1860762 2.5204754 0.83026826
-9.0658808 2.5204346 0.86968338
-8.9723864 2.5397043 0.899019
-8.8465014 2.5284731 0.94106722
-8.7534056 2.5278258 0.97163796
-8.6720934 2.5375516 0.99763358
-8.542264 2.5675869 1.0381453
-8.5122128 2.5675762 1.0479999
-8.4218664 2.5775042 1.0769439
-8.403801 2.5779085 1.08284
-8.3422079 2.5568781 1.1044786
-8.3113165 2.5473893 1.1152587
-8.130065 2.5181727 1.1766951
-8.0955019 2.5182641 1.1880221
-8.0654516 2.5182533 1.1978765
-7.9845428 2.5080643 1.2251053
-7.9244461 2.5080438 1.2448126
-7.7895403 2.4891088 1.2903471
-7.7775602 2.4886947 1.2943038
-7.7294474 2.4890893 1.3100531
-7.6184883 2.4788885 1.3471364
-7.5614424 2.4745069 1.3661423
-7.4716024 2.4595404 1.3966275
-7.4596252 2.4564903 1.400764
-7.3368988 2.4306481 1.4427785
-7.2990279 2.371093 1.4592804
-7.2609591 2.3214967 1.4751643
-7.241159 2.261539 1.4857686
-7.2331367 2.2119524 1.4917994
-7.2006426 2.0335219 1.5146902
-7.1959705 1.9646366 1.520946
-7.1712708 1.8615618 1.5361135
-7.1497197 1.7491465 1.5508893
-7.1014628 1.5197392 1.5824444
-7.0579705 1.4078431 1.6043788
-7.1141844 1.4142628 1.585506
-7.2102127 1.4234324 1.5533893
-7.2553148 1.423105 1.5386225
-7.2941356 1.4381611 1.5248606
-7.3390188 1.4510911 1.5092566
-7.4130883 1.471828 1.4835471
-7.4585938 1.4889107 1.4674542
-7.6328936 1.5185554 1.408268
-7.6463261 1.5184367 1.4038714
-7.6713972 1.5181029 1.3956736
-7.7460814 1.5383854 1.3697935
-7.8654671 1.5782568 1.3279124
-7.9548016 1.6181178 1.2958859
-8.0445414 1.6380634 1.2650923
-8.1912374 1.6594639 1.2155226
-8.2513351 1.6594841 1.1958151
-8.3534451 1.6678345 1.1617601
-8.3654299 1.6682494 1.157802
-8.4461365 1.6883969 1.1299565
-8.4940472 1.6979599 1.1135906
-8.566987 1.7325292 1.0873029
-8.6958723 1.8183415 1.0391564
-8.8268337 1.8785431 0.99208546
-8.8476448 1.8887129 0.98456407
-8.8595238 1.8941054 0.98029912
-8.8892708 1.9090526 0.96951997
-8.9996195 1.9491253 0.93058836
-9.0443945 1.9601243 0.91515219
-9.1160679 1.9804735 0.89025486
-9.1669292 1.990654 0.87287915
-9.2867193 2.0106106 0.83223116
-9.3167658 2.0106204 0.82237816
-9.4010248 2.0015109 0.79537404
-9.4821224 2.0096493 0.76822376
-9.5406504 2.0103869 0.74898183
-9.6023169 2.00969 0.72880888
-9.6748343 2.0395191 0.70298469
-9.7006855 2.0493486 0.69383395
-9.7664604 2.0684648 0.6709553
-9.8263559 2.0784431 0.65063119
-9.8950825 2.098176 0.62674236
-10.002686 2.1276755 0.58943605
-10.42263 2.0176635 0.45927912
-10.465132 1.9974899 0.4467262
-10.578163 2.0488212 0.40614283
-10.608007 2.0587878 0.39567333
-10.774707 2.1341441 0.33584461
-10.974803 2.1902092 0.26638782
-11.034896 2.1902285 0.24668187
-11.04688 2.1906435 0.24272384
-11.136822 2.2006316 0.21254669
-11.193968 2.2000346 0.19384928
-11.239782 2.215826 0.17774369
-11.466933 2.2285631 0.10238682
-11.602458 2.2097192 0.05924011
-11.925235 2.0082088 -0.032780647
-11.985535 1.9982712 -0.051871672
-12.151325 1.9615736 -0.10371831
-12.359533 1.9132903 -0.1686793
-12.416883 1.9027355 -0.18676078
-12.451451 1.9026451 -0.19808948
-12.476981 1.9027559 -0.20646834
-12.596973 1.9127545 -0.24649981
-12.649602 1.9122589 -0.26372287
-12.675133 1.9123697 -0.27210209
-12.693199 1.9119653 -0.27799839
-12.834811 1.892303 -0.32308498
-13.062084 1.8017321 -0.39139751
-13.210794 1.7314625 -0.43534127
-13.659083 1.5452871 -0.56956935
-13.713902 1.5062952 -0.58487046
-13.750238 1.4955285 -0.59604716
-13.762218 1.4959426 -0.6000036
-13.834294 1.496377 -0.62366748
-13.921088 1.5157061 -0.65345287
-14.141788 1.5958526 -0.73131728
-14.192646 1.6060321 -0.74869168
-14.351515 1.6257958 -0.80214071
-14.381364 1.6357644 -0.8126117
-14.402175 1.6459339 -0.82013309
-14.449883 1.6654546 -0.83711541
-14.532921 1.7239985 -0.86835825
-14.571596 1.7437215 -0.88239253
-14.780502 1.8214012 -0.95622027
-4.7937632 0.33520231 1.0409395
-4.794867 0.31429195 1.0337701
-4.793469 0.25283241 1.0145128
-4.7943506 0.23884054 1.0096596
-4.7980862 0.12988281 0.97309083
-4.7992382 -0.0044003129 0.92937124
-4.8527598 -0.059848428 0.89058644
-4.8892751 -0.081097275 0.86946821
-4.9187412 -0.080657452 0.85809356
-4.9482031 -0.080213726 0.84672189
-5.0210285 -0.062543392 0.82395309
-5.1620173 -0.023358405 0.78147638
-5.3336787 -0.03472808 0.71072185
-5.4564748 -0.042910844 0.66009241
-5.5006723 -0.042249113 0.64303178
-5.5673776 -0.049533367 0.61461401
-5.7085724 -0.026984811 0.56669605
-5.7813048 -0.024526298 0.53906202
-5.9709797 -0.014258444 0.46823934
-6.061481 -0.024671823 0.42951301
-6.1823392 0.004620567 0.39171633
-6.226481 0.020328119 0.37952563
-6.2913051 0.035473287 0.35907039
-6.2999873 0.066559732 0.3656939
-6.4279552 0.3576239 0.40946788
-6.3180814 0.51515329 0.50317001
-6.3081927 0.53506136 0.51344973
-6.1752276 0.56750548 0.57587117
-6.0799675 0.61008686 0.62682271
-5.9289827 0.62265438 0.68988216
-5.9114137 0.62064993 0.69610286
-5.7816763 0.61692274 0.7456075
-5.7135243 0.59364361 0.76474243
-5.6683588 0.57378018 0.77599418
-5.2294159 0.51878619 0.92982715
-5.1776853 0.53079832 0.95391583
-5.0554938 0.51127517 0.99538141
-4.9591327 0.49901968 1.0290935
-4.9229932 0.48583689 1.0389702
-4.8444915 0.46460146 1.0628088
-4.8210273 0.44833547 1.066738
-4.7966042 0.37242144 1.0518219
-3.3418701 -3.5941095 2.3335612
-3.3686147 -3.5927634 2.3313439
-3.3880999 -3.5918841 2.3297424
-3.4726207 -3.592751 2.3234396
-3.4871659 -3.593574 2.3224475
-3.5307996 -3.596046 2.3194718
-3.5440578 -3.5961819 2.3184831
-3.5705743 -3.5964537 2.3165057
-3.600405 -3.5967598 2.314281
-3.6501234 -3.5972691 2.3105733
-3.6806965 -3.5962324 2.3081079
-3.8320758 -3.5937366 2.2962625
-3.9016817 -3.5944505 2.2910717
-3.9215691 -3.5946541 2.2895885
-3.9620845 -3.5937209 2.2863817
-3.982713 -3.5925841 2.2846582
-4.0232301 -3.5916491 2.281451
-4.0431175 -3.5918531 2.2799678
-4.0836329 -3.59092 2.2767611
-4.1042628 -3.5897808 2.2750371
-4.1319785 -3.5893908 2.2728775
-4.1746097 -3.5891538 2.2696056
-4.2044401 -3.5894594 2.2673812
-4.2335305 -3.5911059 2.2653971
-4.2931924 -3.5917177 2.2609477
-4.3237643 -3.5906825 2.2584825
-4.3436518 -3.5908866 2.2569995
-4.3742237 -3.5898514 2.2545342
-4.3898811 -3.5886617 2.253181
-4.4559975 -3.5866427 2.2478797
-4.5071993 -3.5844688 2.2436905
-4.6330271 -3.5647812 2.2314234
-4.6950073 -3.4784336 2.2148442
-4.7740746 -3.3601213 2.1925731
-4.765336 -3.257839 2.179177
-4.7749009 -3.1486266 2.1634376
-4.8074288 -3.0167515 2.142838
-4.8656068 -2.9113626 2.1239305
-4.8835497 -2.8610716 2.115654
-4.9710193 -2.7196183 2.0895634
-5.28545 -2.5376339 2.0406559
-5.3949327 -2.504204 2.0277414
-5.4187078 -2.4867399 2.0235343
-5.4391823 -2.4708796 2.0197985
-5.7767496 -2.1600451 1.9514209
-5.8143282 -2.1242671 1.9436474
-5.8321123 -2.0955803 1.9383527
-5.8707142 -1.983109 1.9199589
-5.8811455 -1.9573292 1.9156227
-5.8947716 -1.9201338 1.9094744
-5.9523144 -1.5712442 1.8571427
-5.9750071 -1.522404 1.8487048
-5.978117 -1.5028069 1.8457745
-5.9867077 -1.445358 1.8372247
-5.9920645 -1.4097118 1.8319178
-6.0098333 -1.2787478 1.812565
-5.9644079 -1.2128522 1.8069583
-5.9527435 -1.1925288 1.8050508
-5.9215593 -1.1346719 1.7994672
-5.8826313 -1.0420959 1.7896993
-5.8386927 -0.95985746 1.7817333
-5.8074074 -0.89694726 1.7754626
-5.7581539 -0.80274069 1.7662551
-5.6745133 -0.63790357 1.7499515
-5.6387224 -0.63933444 1.7528677
-5.4155903 -0.6283344 1.7683098
-5.4006743 -0.62818158 1.7694223
-5.3349123 -0.64136946 1.7762319
-5.1923752 -0.64780164 1.7879465
-5.1392736 -0.64071441 1.791007
-5.0383563 -0.64336944 1.7990401
-5.0146666 -0.64531505 1.8011075
-4.9548697 -0.64544654 1.8056692
-4.7134118 -0.58322847 1.8154633
-4.6835818 -0.58292282 1.8176877
-4.5810494 -0.64750302 1.834356
-4.5407367 -0.66806924 1.8402461
-4.4763284 -0.7388078 1.854864
-4.4549084 -0.75956774 1.8593452
-4.4189277 -0.79134107 1.8664469
-4.3583946 -0.85230458 1.8794265
-4.3157201 -0.90952778 1.8905351
-4.2899685 -0.94398141 1.8972279
-4.2744284 -0.96345115 1.901085
-4.2277918 -1.0133965 1.9114943
-4.1983685 -1.052353 1.919085
-4.188561 -1.0653384 1.9216152
-4.1591039 -1.101023 1.9287587
-4.1328931 -1.1301981 1.9347608
-4.1193018 -1.1706653 1.9413563
-3.7526269 -1.5046482 2.0151277
-3.6778243 -1.5367913 2.0252297
-3.6521149 -1.5455749 2.0283906
-3.5507851 -1.5804803 2.0408883
-3.5104477 -1.5985906 2.0464427
-3.4506698 -1.6231897 2.0543664
-3.3752024 -1.6640351 2.0657153
-3.3154507 -1.6863949 2.073329
-3.2521033 -1.731626 2.0843599
-3.1716313 -1.78748 2.0981524
-3.1137815 -1.8276172 2.1080654
-3.0738966 -1.8494127 2.1140919
-3.0056357 -1.8772963 2.1231115
-2.9355936 -1.9073726 2.1325679
-2.8511963 -1.9680915 2.1473274
-2.8288951 -1.9907635 2.1521385
-2.8101184 -2.0107324 2.1563101
-2.7297738 -2.078856 2.1717794
-2.7079048 -2.0958884 2.1757824
-2.6268518 -2.1535614 2.1898689
-2.5447638 -2.1938736 2.2016478
-2.4683509 -2.2301383 2.2124388
-2.3900287 -2.2562037 2.2219729
-2.3510766 -2.2775185 2.2278626
-2.3035817 -2.311013 2.2360756
-2.288022 -2.3356774 2.2406485
-2.2519884 -2.3942764 2.2514415
-2.2047744 -2.5888543 2.2817762
-2.1722407 -2.6474085 2.2922974
-2.1308806 -2.7310038 2.3069313
-2.0858753 -2.846863 2.3262773
-2.0758023 -2.9069953 2.3353086
-2.0318513 -3.032907 2.3559561
-2.0144708 -3.1094036 2.3677921
-2.0034528 -3.1512456 2.3743811
-1.9621387 -3.2936237 2.3970919
-1.9254081 -3.3790822 2.4116302
-1.9028044 -3.4240375 2.4195273
-1.8897891 -3.5378737 2.4361646
-1.8820846 -3.579752 2.4425068
-1.9785991 -3.589788 2.4365528
-2.0601692 -3.6012068 2.4319243
-2.0885317 -3.6001492 2.4296241
-2.1397331 -3.5979748 2.4254346
-2.1596205 -3.5981789 2.4239516
-2.1993947 -3.5985866 2.4209855
-2.2200234 -3.5974498 2.4192617
-2.3301461 -3.5972281 2.4108639
-2.3425758 -3.5973554 2.4099369
-2.3639545 -3.5975747 2.4083426
-2.469357 -3.5986552 2.4004822
-2.4991882 -3.5989609 2.3982577
-2.5190756 -3.599165 2.3967745
-2.5385916 -3.60004 2.395412
-2.5621152 -3.60045 2.393681
-2.587939 -3.6012211 2.3918247
-2.6177697 -3.6015272 2.3896003
-2.6376569 -3.6017308 2.3881171
-2.8279681 -3.5911684 2.3722048
-2.9223609 -3.5992517 2.3661437
-2.9396749 -3.5980806 2.3646669
-2.990134 -3.5972495 2.3607187
-3.0207074 -3.5962129 2.3582532
-3.1009977 -3.5956874 2.3520803
-3.1457443 -3.5961461 2.3487434
-3.1706035 -3.5964007 2.3468895
-3.2206926 -3.5962391 2.3430612
-3.3079836 -3.5951104 2.3362734
3.8635726 1.4048511 0.057822704
3.8698297 1.4760125 0.057224035
3.9118848 1.6975288 -8.559227e-005
3.9248509 1.9772785 0.026131153
3.9248199 2.0972807 0.051112413
3.9272752 2.2079179 0.068044662
3.9274416 2.2387497 0.074035168
3.9127989 2.4508321 0.15401268
3.9158134 2.5405769 0.1652348
3.9210231 2.6409819 0.17327881
3.9206808 2.6976874 0.18588829
3.9148498 2.8619967 0.23431015
3.9220374 2.9334316 0.2314837
3.9267378 3.0259919 0.23915052
3.9281952 3.0362918 0.23770833
3.9367135 3.1055717 0.23116684
3.9599023 3.1453018 0.18246222
4.0130863 3.1741877 0.057840824
4.0381098 3.1820731 -0.0019776821
4.2101803 3.4626021 -0.36634827
4.2777133 3.8036561 -0.46142101
4.2821031 4.0266657 -0.42591786
4.2807951 4.056776 -0.41645575
4.2967458 4.2179627 -0.4221766
4.300808 4.3793097 -0.3986671
4.3003478 4.4693484 -0.37884998
4.3017888 4.4892273 -0.37826324
4.3097477 4.5793991 -0.3790946
4.3103018 4.7601976 -0.34293222
4.3004818 4.9977884 -0.26950455
4.3148899 5.1214995 -0.27921534
4.3208203 5.2318444 -0.27087808
4.3320823 5.2908921 -0.28628135
4.3692875 5.3794384 -0.35927796
4.4164472 5.3929882 -0.47228575
4.4378347 5.4078712 -0.52172375
4.4656072 5.4055243 -0.59041715
4.5011444 5.3550568 -0.688169
4.6415749 5.2865691 -1.0472696
4.684638 5.3220844 -1.1456585
4.7470002 5.3418856 -1.2947061
4.806901 5.3776684 -1.434391
4.8343134 5.407887 -1.4954424
4.9083567 5.4674039 -1.6649356
4.9339905 5.4932103 -1.7225343
4.9460406 5.5056286 -1.7495512
5.0205412 5.6090508 -1.9110537
5.0466399 5.6693807 -1.96263
5.0794888 5.7174497 -2.0333281
5.0928183 5.7371683 -2.0619717
5.1727657 5.8746376 -2.2297852
5.2284436 5.9950027 -2.3415456
5.2487912 6.0538459 -2.3793054
5.260179 6.084856 -2.4008365
5.2651229 6.0852838 -2.4128902
5.2814345 6.0872855 -2.4525342
5.2923741 6.0846705 -2.4799447
5.3466721 6.0717721 -2.615973
5.3668127 6.0409155 -2.6718416
5.4378209 5.9782944 -2.8592281
5.4566817 5.9583912 -2.9096797
5.513967 5.9277749 -3.0567224
5.5476365 5.9283099 -3.1393018
5.5624738 5.9295912 -3.1754744
5.5848093 5.9093943 -3.2345212
5.6353784 5.8718815 -3.3664999
5.6480203 5.8625031 -3.3994949
5.7166162 5.8482084 -3.5709281
5.7367978 5.849719 -3.6201787
5.85531 5.927803 -3.8950305
5.9227428 5.9229498 -4.0616474
5.9701691 5.947392 -4.1730504
6.0286684 6.0192084 -4.3018155
6.0845079 6.0695605 -4.4285021
6.1279378 6.1218061 -4.5243196
6.1412668 6.1415253 -4.5529628
6.1767383 6.2044425 -4.6270199
6.1932158 6.2372751 -4.6606736
6.244638 6.2596903 -4.7823105
6.3222313 6.3041191 -4.9636531
6.3692303 6.3243723 -5.0748758
6.4492788 6.2777491 -5.2811456
6.4661112 6.278017 -5.3224287
6.5305018 6.2776461 -5.4806442
6.7704344 6.3042712 -6.0643754
6.83283 6.3049135 -6.2174807
6.8390875 6.2752304 -6.2390089
6.86057 6.1951051 -6.3083978
6.9914131 5.9533424 -6.6799154
6.996191 5.9229393 -6.6979599
7.0993562 5.3492918 -7.0703826
7.0622177 5.0207405 -7.0473623
7.0659866 4.8995767 -7.0817642
7.041585 4.4291039 -7.1194787
7.0436187 4.4089313 -7.1286602
7.0565548 4.2786837 -7.1874623
7.0443673 4.1980228 -7.1742716
7.0424051 3.7764983 -7.256938
7.0798063 3.548409 -7.3961296
7.107645 3.1043656 -7.5566587
7.2607484 2.8129771 -7.993145
7.2863436 2.764617 -8.066041
7.2840548 2.6848104 -8.0769835
7.2817602 2.6050045 -8.0879116
7.2923741 2.4141071 -8.1535978
7.2951565 2.3847172 -8.1665306
7.2964649 2.3546069 -8.175993
7.2682657 2.0244546 -8.1752596
7.2695789 1.994343 -8.1847343
7.2901139 1.7851434 -8.2785845
7.289948 1.754312 -8.2845755
7.285531 1.6255304 -8.3004551
7.260541 1.3967974 -8.2865543
7.2728906 0.97828913 -8.4037418
7.2789154 0.82947016 -8.4494247
7.2581215 0.61038184 -8.4438267
7.2019825 0.58005595 -8.3122482
7.1851506 0.57978809 -8.2709656
7.1644835 0.57484436 -8.2212353
6.9401684 0.20682907 -7.7467127
6.9063659 -0.045384884 -7.7160416
6.9034843 -0.085140944 -7.7172151
6.8676529 -0.11549377 -7.6355157
6.8437099 -0.14600587 -7.583046
6.8177385 -0.15634608 -7.5214086
6.7214465 -0.27665925 -7.3098917
6.7130327 -0.27679348 -7.2892566
6.6815581 -0.26666903 -7.209856
6.6332793 -0.27596927 -7.0932164
6.6036539 -0.1806488 -7.0006762
6.6030498 -0.13102031 -6.9888921
6.601903 -0.070078135 -6.9734268
6.5984936 0.018519402 -6.9466667
6.5958724 0.078741074 -6.9277296
6.5945644 0.10885167 -6.9182682
6.5709639 0.32035303 -6.816412
6.4400291 0.52317834 -6.4527512
6.4231973 0.52291071 -6.4114685
6.2227941 0.39224076 -5.9464126
6.1202173 0.19414878 -5.7356038
6.0246515 -0.042845964 -5.5500884
6.0105686 -0.05334568 -5.5176806
5.9689393 -0.08466363 -5.4219418
5.954329 -0.10126901 -5.3895073
5.8627601 -0.26522112 -5.1986475
5.8353477 -0.29543996 -5.1375961
5.8269286 -0.29557347 -5.1169477
5.8185101 -0.29570723 -5.0962996
5.7939463 -0.2670114 -5.0300169
5.7666664 -0.24724126 -4.9589171
5.7309628 -0.22760439 -4.867156
5.7211723 -0.22262216 -4.8420773
5.7128558 -0.21691966 -4.8204694
5.6840968 -0.19786954 -4.7458849
5.6289558 -0.16628003 -4.6039076
5.6160698 -0.16472626 -4.5719371
5.6076536 -0.16486025 -4.5512953
5.5714941 -0.16854143 -4.4632549
5.560524 -0.17179275 -4.4369874
5.523653 -0.18787885 -4.3497739
5.4875484 -0.20238662 -4.2641139
5.4615769 -0.21272683 -4.202476
5.424408 -0.23061872 -4.1149058
5.3770447 -0.25656915 -4.0039701
5.2648087 -0.38792968 -3.7555897
5.2416887 -0.40266585 -3.7018678
5.2332726 -0.40279984 -3.6812258
5.1487751 -0.45403934 -3.4843404
5.0892339 -0.52238798 -3.3522975
5.0598211 -0.55159211 -3.2861228
5.0521617 -0.56094527 -3.2692528
5.0115809 -0.58005118 -3.1735549
4.9768305 -0.59549475 -3.0914154
4.9466691 -0.6154809 -3.0214896
4.9378901 -0.62058425 -3.0009878
4.923286 -0.62935042 -2.9669409
4.8841796 -0.64773583 -2.8747144
4.8529987 -0.55679059 -2.7792611
4.564939 -0.45878553 -2.0514677
4.5425043 -0.50773501 -2.0065279
4.5184002 -0.56907821 -1.960062
4.5060577 -0.60372519 -1.93694
4.4842372 -0.66210675 -1.8954672
4.4800472 -0.67175245 -1.8871787
4.4296069 -0.77321768 -1.7843595
4.3240881 -1.3653333 -1.6481034
4.3330603 -1.4611619 -1.6900268
4.3347282 -1.523838 -1.7071309
4.335516 -1.5522146 -1.7149543
4.2691383 -1.7619576 -1.5954671
4.264298 -1.782464 -1.5878356
4.2526588 -1.8369031 -1.5705492
4.2504644 -1.8475623 -1.5673714
4.2391801 -1.8970313 -1.5499258
4.2209773 -1.9885917 -1.5242238
4.1892757 -2.0976028 -1.468991
4.1816111 -2.1069546 -1.4521077
4.1482077 -2.1341324 -1.3757124
4.111135 -2.1726894 -1.2926674
4.0916157 -2.2010398 -1.2506125
4.0734148 -2.22368 -1.2106116
4.0474653 -2.2256889 -1.1472988
4.0208397 -2.2209744 -1.08093
3.9985323 -2.2199345 -1.025929
3.9642749 -2.1804194 -0.93359423
3.8762069 -2.148118 -0.71060085
3.8311477 -2.161634 -0.60274458
3.820148 -2.1684279 -0.57714009
3.8094831 -2.1644745 -0.55012679
3.7976665 -2.082396 -0.50407147
3.7828612 -1.9865255 -0.44781375
3.7770979 -1.9548836 -0.42709255
3.7740498 -1.9246259 -0.41332698
3.7733624 -1.7895679 -0.3836081
3.779686 -1.6934123 -0.37918234
3.7800133 -1.6317496 -0.36718798
3.7797861 -1.5867305 -0.35728645
3.7846634 -1.5104527 -0.35343409
3.8209901 -1.3625832 -0.41196084
3.8248236 -1.3453951 -0.41780806
3.8401875 -1.2707784 -0.44005466
3.892487 -0.84618378 -0.48037601
3.8949754 -0.75470424 -0.46750188
3.9043584 -0.63507485 -0.46571732
3.8736963 -0.292624 -0.31934023
3.8549628 -0.22273135 -0.25882673
3.8424816 -0.18252182 -0.21982861
3.8404531 -0.16235042 -0.21066022
3.8401909 -0.085661173 -0.19409919
3.8414402 0.22432685 -0.13283181
3.8408191 0.28353429 -0.11901832
3.8425317 0.3553896 -0.10831141
3.8391116 0.49198842 -0.071561575
3.8357415 0.56142819 -0.048872948
3.8371491 0.60046446 -0.044228315
3.8421922 0.6700381 -0.042174339
3.8452516 0.79435706 -0.023885965
3.8375754 0.93296337 0.023732185
3.8430059 1.0774341 0.040379286
3.8436928 1.1065307 0.04473114
3.8481152 1.2353121 0.060597897
3.8595099 1.3443493 0.055243015
2.6340525 -0.37242115 1.4101474
2.70526 -0.33750868 1.2438807
2.7103176 -0.33980477 1.2255604
2.719388 -0.34938335 1.1852579
2.7709537 -0.36009371 1.0157809
2.7822101 -0.36066401 0.98119551
2.7934666 -0.36123431 0.94661009
2.8134484 -0.3612262 0.88660663
2.8287237 -0.35726106 0.84613466
2.8450246 -0.35240233 0.80380011
2.8791277 -0.34472561 0.71184045
2.8901563 -0.37519205 0.63717812
2.9201403 -0.44972444 0.44550252
2.9257638 -0.46773791 0.40405232
2.9305952 -0.49993145 0.34564811
2.9922862 -0.55431747 0.086210489
3.0072145 -0.55201542 0.044513464
3.046165 -0.56572294 -0.09116137
3.0577395 -0.56771398 -0.12863952
3.0533721 -0.58573127 -0.14008814
3.0402741 -0.63978529 -0.17444795
3.0274427 -0.68911374 -0.20316595
2.9961238 -0.81875753 -0.28586352
2.9619293 -0.97329938 -0.39387089
2.9414911 -1.0331001 -0.41402113
2.9108317 -1.1228013 -0.44423926
2.8699164 -1.235148 -0.47453105
2.8574092 -1.2730885 -0.48869586
2.8426192 -1.3190726 -0.50697142
2.7923379 -1.4641201 -0.55371833
2.7735713 -1.5222676 -0.57663441
2.7300828 -1.6433818 -0.61115146
2.7130527 -1.6874926 -0.62014508
2.679987 -1.7806401 -0.64783514
2.6649072 -1.821727 -0.65856385
2.6500342 -1.8637098 -0.67113411
2.6344988 -1.9090698 -0.68632042
2.6126945 -1.9673295 -0.70026636
2.6033084 -1.9903064 -0.70340323
2.5498044 -2.1432552 -0.75124371
2.5106401 -2.2390954 -0.76428914
2.490082 -2.294302 -0.77781451
2.4833958 -2.3101749 -0.77937484
2.4271681 -2.4417515 -0.78989506
2.1946445 -2.89713 -0.7124064
2.1644299 -3.0008154 -0.76302755
2.1607187 -3.0139773 -0.76982665
2.1397483 -3.08323 -0.80126512
2.1329744 -3.1046944 -0.81018567
2.125164 -3.1311486 -0.82279599
2.1081688 -3.182513 -0.84178448
2.0560272 -3.3541741 -0.91922998
2.0290451 -3.4055443 -0.90823078
1.969609 -3.5289907 -0.89803028
1.9425668 -3.5780635 -0.88371861
1.9035263 -3.5880387 -0.78006339
1.8681062 -3.5793724 -0.66186571
1.8059872 -3.5969186 -0.49921817
1.7684299 -3.5934877 -0.38173932
1.7559081 -3.5923429 -0.3425703
1.7384567 -3.5935001 -0.2917338
1.7244488 -3.58622 -0.23973584
1.7094002 -3.5839283 -0.19141364
1.6710427 -3.5946741 -0.090860665
1.6334856 -3.5912428 0.026618123
1.6033882 -3.5866597 0.12326247
1.5959278 -3.5878124 0.14409718
1.5884638 -3.5889635 0.16494557
1.5734153 -3.5866718 0.21326774
1.5634242 -3.5866759 0.24326956
1.5209296 -3.5855434 0.37244385
1.5058848 -3.5832534 0.42075208
1.4657967 -3.5786736 0.54739803
1.4332931 -3.5775371 0.64657044
1.4158417 -3.5786941 0.69740695
1.4007931 -3.5764024 0.74572909
1.3792007 -3.5656793 0.82520056
1.3381963 -3.5706837 0.94153166
1.3307321 -3.5718348 0.96238035
1.3220046 -3.5724125 0.9878056
1.3145401 -3.5735638 1.0086542
1.2982285 -3.5706983 1.0615528
1.2895027 -3.5712767 1.086971
1.2757195 -3.5695593 1.1307096
1.2081853 -3.566139 1.3382077
1.1981943 -3.5661433 1.3682094
1.1882032 -3.5661473 1.3982114
1.1581061 -3.5615637 1.4948556
1.1430615 -3.5592732 1.5431637
1.1330705 -3.5592775 1.5731655
1.1254822 -3.5558329 1.6006531
1.1120299 -3.5251863 1.6828408
1.2745211 -3.090857 1.7869908
1.2796297 -3.0759063 1.7920318
1.2847383 -3.0609555 1.7970728
1.2974863 -3.032203 1.7979876
1.3569825 -2.9110532 1.7844746
1.3785708 -2.8667748 1.7800064
1.3924692 -2.8535442 1.7563027
1.5732443 -2.600641 1.5581743
1.5909684 -2.5682588 1.5490927
1.6487906 -2.4609535 1.5217316
1.7156197 -2.3145142 1.5206757
1.7645937 -2.1763179 1.5620074
1.7777414 -2.1404774 1.5713853
1.8142545 -2.0388944 1.6002231
1.8492773 -1.9311745 1.641904
1.8600304 -1.8918233 1.6632607
1.8886285 -1.7981819 1.7050422
1.8953211 -1.7793784 1.7105788
1.9199495 -1.7142099 1.7254622
1.9524778 -1.6199293 1.7563115
1.9878652 -1.5259936 1.7781036
2.032398 -1.3998932 1.8162825
2.0473468 -1.3657587 1.8179245
2.0887935 -1.2618756 1.8350807
2.1155453 -1.1854014 1.859001
2.1559656 -1.0705922 1.8941369
2.1915586 -0.97859097 1.9126736
2.2110803 -0.92837429 1.9225088
2.2535672 -0.81950307 1.9433414
2.2799833 -0.75241554 1.955472
2.2987828 -0.70823598 1.9592451
2.3137393 -0.67958128 1.953393
2.3524432 -0.64353263 1.886299
2.4037857 -0.59368134 1.800064
2.4128492 -0.58371675 1.7864282
2.4738462 -0.50778818 1.7067522
2.5124297 -0.4671452 1.646283
2.5807705 -0.38547099 1.5523834
2.6065297 -0.38354576 1.4776429
-6.8514266 -0.32392144 1.4683886
-6.8016 -0.48567557 1.4195663
-6.6541495 -0.39087749 1.1085929
-6.6426058 -0.36639929 1.0792944
-6.5065265 -0.21787643 0.77458286
-6.4762616 -0.18267989 0.70618474
-6.4598541 -0.1650455 0.66952443
-6.4255433 -0.12439442 0.59176505
-6.3854556 -0.081360579 0.50220859
-6.3706055 -0.050627947 0.46473822
-6.3654785 -0.041364193 0.45219347
-6.3849406 0.22569656 0.41207072
-6.4051194 0.39613891 0.40137669
-6.4169235 0.44237661 0.4106448
-6.4331369 0.50992775 0.42219982
-6.4725809 0.70397079 0.44168946
-6.3519759 1.2229183 0.059179217
-6.313128 1.2612339 -0.026624054
-6.1068487 1.3713467 -0.45513308
-5.9663601 1.2454821 -0.68865883
-5.9228363 1.2775247 -0.78162974
-5.8891153 1.3065761 -0.85488808
-5.7406802 1.5031362 -1.1972985
-5.6838346 1.5719047 -1.3265408
-5.5893312 1.6256052 -1.5238006
-5.5738964 1.6349161 -1.5561742
-5.5167618 1.6929727 -1.6828622
-5.4452939 1.7516842 -1.8372941
-5.4155197 1.7616503 -1.8974243
-5.3416491 1.7822349 -2.0454049
-5.2507257 1.8178434 -2.2305291
-5.1924238 1.8660765 -2.3566091
-5.1449471 1.9006957 -2.4579277
-5.0872178 2.0198839 -2.6035068
-5.1662273 2.2009714 -2.5041983
-5.1822338 2.2536514 -2.4887218
-5.2042313 2.3442936 -2.4727519
-5.2198606 2.4234433 -2.4656858
-5.2303696 2.5118563 -2.4711525
-5.2453547 2.5511036 -2.4537413
-5.2655263 2.5995665 -2.4290342
-5.3559694 3.1938257 -2.4277017
-5.3560362 3.2123048 -2.4329383
-5.3697872 3.3265817 -2.4396822
-5.393652 3.4556851 -2.4312885
-5.4190731 3.5978873 -2.4237049
-5.4369717 3.6782048 -2.412617
-5.4688606 3.8520727 -2.4017932
-5.4771385 3.8973145 -2.3990152
-5.4991884 4.0008907 -2.386699
-5.5149255 4.0515342 -2.3711503
-5.7227721 4.1769629 -2.0080125
-5.7382736 4.186131 -1.9808755
-5.8341346 4.2637358 -1.8191284
-5.8656545 4.285017 -1.7647141
-5.9199991 4.3219118 -1.6709567
-5.9325757 4.3230329 -1.6471058
-5.9799862 4.2864447 -1.5453435
-5.9926348 4.2730236 -1.5171322
-6.0463333 4.2039757 -1.3938587
-6.0886173 4.176652 -1.3046414
-6.1879501 4.1359973 -1.1018857
-6.205945 4.1385655 -1.0680385
-6.2253995 4.1286478 -1.027761
-6.33079 4.129344 -0.8253662
-6.3841057 4.1603532 -0.73187757
-6.4534335 4.170455 -0.60153824
-6.4660163 4.1715751 -0.5776754
-6.4866381 4.1714811 -0.53800577
-6.5354886 4.1525931 -0.43861479
-6.5559778 4.148561 -0.39805692
-6.5859394 4.02039 -0.30324823
-6.6094861 3.9580307 -0.23987825
-6.6312141 3.9162593 -0.18598184
-6.7293983 3.8025749 0.035767674
-6.814167 3.803365 0.19849268
-6.8367319 3.7844872 0.2473509
-6.9296141 3.6310318 0.47045591
-6.9611783 3.5502927 0.55457342
-6.9872708 3.5098755 0.61646676
-7.0065355 3.3784761 0.69164932
-7.041235 3.2377663 0.79920542
-7.0657482 3.1670849 0.86684966
-7.0708079 3.1393416 0.88463116
-7.0986295 3.0096705 0.97576082
-7.1034608 2.9896953 0.99084783
-7.1082926 2.9697213 1.005935
-7.1179552 2.9297721 1.0361087
-7.1389046 2.7781181 1.1204097
-7.1610942 2.654767 1.1988783
-7.1639462 2.6443369 1.2073891
-7.1673212 2.6038263 1.2256378
-7.2055278 2.4265466 1.3505543
-7.2100706 2.39586 1.3681957
-7.2033615 2.2815876 1.3884749
-7.1932778 2.240845 1.3809202
-7.1800504 2.1998222 1.3674026
-7.1328092 1.8010986 1.3923492
-7.1278496 1.7510929 1.3973331
-7.1237221 1.6768726 1.4109465
-7.115293 1.6399686 1.4054576
-7.0761771 1.3246517 1.421809
-7.0843163 1.2291776 1.4651741
-7.0847726 1.1806194 1.4801488
-7.0867815 1.1028155 1.5065999
-7.0885296 1.0400516 1.5281821
-7.0890522 1.0099728 1.5379199
-7.0860887 0.96759057 1.5445273
-7.0800943 0.86434615 1.5629784
-7.0771079 0.80479741 1.5745263
-7.0539556 0.69678366 1.5613794
-7.0275192 0.53502119 1.5575234
-7.024241 0.48127174 1.5668269
-7.0235963 0.44136894 1.5771722
-7.0073767 0.37381828 1.5656052
-6.9832125 0.10630083 1.596821
-6.9817657 0.063727379 1.6063994
-6.9796023 0.034054279 1.6108558
-6.976099 0.0045831203 1.6126781
-6.9737639 -0.015064001 1.613893
-6.9702606 -0.044534683 1.615715
-6.9518461 -0.094774485 1.5949013
4.1320429 -2.9908848 -0.95964956
4.1369119 -3.0098491 -0.94784093
4.1602077 -3.0098038 -0.93774283
4.2162561 -3.0040779 -0.91631824
4.2996774 -2.9697404 -0.89762551
4.3542657 -2.9485004 -0.88476521
4.4273829 -2.9294622 -0.86272919
4.5426188 -2.913229 -0.8209604
4.5685129 -2.9108081 -0.8109476
4.6936212 -2.897742 -0.76327074
4.7525659 -2.8915 -0.7408517
4.7663627 -2.890085 -0.73558068
4.8085194 -2.8817403 -0.7215302
5.007987 -2.8711128 -0.64030027
5.083694 -2.8667688 -0.60962844
5.213088 -2.8753505 -0.5490247
5.2757974 -2.8685377 -0.52526176
5.3151164 -2.8577366 -0.51369977
5.3614712 -2.8459847 -0.49956685
5.4141502 -2.8365996 -0.4814766
5.4354124 -2.8328559 -0.47415245
5.6019874 -2.8040555 -0.41650194
5.6150951 -2.8004572 -0.41264623
5.84794 -2.7892935 -0.31718904
5.9381433 -2.8095326 -0.26765379
6.0458112 -2.8067894 -0.22227785
6.0662026 -2.8072493 -0.21318336
6.1065316 -2.8071952 -0.19568941
6.2080336 -2.8210018 -0.14453313
6.2850494 -2.8250101 -0.10902356
6.3020096 -2.8276107 -0.10032566
6.3702054 -2.8301945 -0.069376171
6.3992953 -2.829123 -0.057285219
6.4618268 -2.8262198 -0.03160125
6.540401 -2.8245423 0.0016792119
6.5990562 -2.8184006 0.024023741
6.751894 -2.8170831 0.08975327
6.7717752 -2.8202758 0.10002288
6.9471388 -2.8212922 0.176732
6.9709587 -2.8242831 0.18860978
6.9879246 -2.8222177 0.19492522
7.0404687 -2.8052099 0.20906061
7.0806522 -2.7806559 0.21396866
7.1265903 -2.7451177 0.2157625
7.1562853 -2.7138169 0.21266517
7.1710401 -2.6994123 0.21171287
7.7355294 -2.4766929 0.34312558
7.7668734 -2.4815671 0.35923493
7.8352175 -2.4896197 0.39304411
7.9069681 -2.5049148 0.43203521
7.9736395 -2.5167184 0.46703494
8.0078087 -2.5191386 0.48311734
8.071804 -2.5279567 0.51542842
8.17206 -2.5423753 0.56635624
8.2287064 -2.5484309 0.59406239
8.2779007 -2.5426934 0.61250299
8.3047028 -2.5409949 0.62327957
8.4289083 -2.5314634 0.67237085
8.5106287 -2.5271637 0.70567793
8.5631094 -2.5300806 0.72996986
8.6125937 -2.5294747 0.75115955
8.6485033 -2.5219166 0.76289785
8.884552 -2.4382477 0.82268715
8.9613037 -2.4326625 0.85317862
9.0096788 -2.4125166 0.86389875
9.3985653 -2.4300308 1.0418091
9.4140024 -2.4299555 1.0484775
9.4942617 -2.4368777 1.0868858
9.5887928 -2.3997085 1.1089579
9.6662569 -2.3784912 1.1317687
9.7186289 -2.3653979 1.1478301
9.757947 -2.3545969 1.1593919
9.8103132 -2.3414986 1.1754482
9.8991852 -2.3101718 1.198048
9.9400368 -2.2911723 1.2060853
9.941637 -2.2630544 1.1924086
9.9420557 -2.0547228 1.0861053
9.957263 -1.9896734 1.0594635
9.9777403 -1.9143542 1.029862
9.9829235 -1.8895698 1.0194459
9.993886 -1.8266442 0.9920454
10.023189 -1.7231152 0.95185924
10.033484 -1.6934602 0.94117439
10.001317 -1.6385607 0.89913809
9.9792738 -1.6400793 0.89033723
9.7420883 -1.5971162 0.76532817
9.4058685 -1.6115643 0.62663674
9.3767757 -1.6126301 0.61454171
9.1729145 -1.588088 0.51342642
8.9232292 -1.5863001 0.40403259
8.9067831 -1.5885208 0.39802235
8.8487463 -1.5967143 0.37699515
8.6337061 -1.6143124 0.29256237
8.4254503 -1.5546012 0.17156181
8.4080553 -1.557664 0.16556975
8.2889843 -1.5705221 0.12040946
8.2128983 -1.5784608 0.091410398
8.1291313 -1.5824599 0.05706051
7.9075222 -1.6156645 -0.022249356
7.8789382 -1.6139978 -0.035520107
7.7770805 -1.6205161 -0.076442182
7.7058625 -1.6321423 -0.10144153
7.5389066 -1.6174884 -0.18146849
7.4486346 -1.6171688 -0.22085199
7.3813887 -1.6143299 -0.25151917
7.3628936 -1.6121796 -0.26065376
7.1300125 -1.5687897 -0.38401091
6.8774691 -1.6010919 -0.47722203
6.8570781 -1.6006317 -0.48631638
6.8284993 -1.5989704 -0.49958205
6.7616177 -1.6026394 -0.52676457
6.6714029 -1.6051308 -0.56468648
6.5967922 -1.60206 -0.59867197
6.5605316 -1.5964595 -0.61728859
6.5227442 -1.5990624 -0.63237548
6.3748488 -1.6106558 -0.69070542
6.3085899 -1.6041751 -0.72280514
6.221313 -1.6073786 -0.75908673
6.1442065 -1.620783 -0.78573549
6.0583019 -1.6316794 -0.81748867
6.0339866 -1.63719 -0.82523626
5.5066652 -1.3224989 -1.2151892
5.3811517 -1.2642488 -1.299494
5.3257408 -1.2378837 -1.3370444
5.1917615 -1.2132013 -1.4078699
5.1612039 -1.2025464 -1.4265924
5.0271263 -1.2206894 -1.475571
4.9241271 -1.2118673 -1.5248301
4.7758541 -1.2097809 -1.5903162
4.7217107 -1.2549069 -1.5907744
4.704731 -1.2737536 -1.5885183
4.6658759 -1.3136307 -1.5850171
4.5754313 -1.4075198 -1.5763224
4.5470886 -1.4359396 -1.57411
4.4988966 -1.5998316 -1.5112773
4.4958334 -1.6162281 -1.5042273
4.4203992 -1.8524817 -1.4162439
4.3610044 -1.9423113 -1.3961341
4.3260107 -2.0082014 -1.3776591
4.3005352 -2.079994 -1.3520318
4.284533 -2.1146979 -1.3412459
4.2779317 -2.1636961 -1.3190694
4.2620778 -2.2818089 -1.265586
4.2607679 -2.3220329 -1.2455952
4.2591662 -2.4400947 -1.1859459
4.2576895 -2.4504955 -1.1812712
4.2594137 -2.4751453 -1.1679229
4.2599902 -2.5417061 -1.1336508
4.1567316 -2.8314016 -1.0304403
4.1474791 -2.900516 -0.99913353
4.1328773 -2.966866 -0.97156382
0.80138075 3.9985087 -1.1820982
0.75038457 3.9907639 -1.156412
0.68908393 3.9906516 -1.1420534
0.49465537 3.976212 -1.0712191
0.47436476 3.9739556 -1.0624809
0.37216437 3.98684 -1.0620168
0.029137075 3.995537 -0.99841523
-0.24537382 3.9804621 -0.90794516
-0.25428006 3.9789696 -0.90320784
-0.46081889 4.0881214 -1.0515324
-0.57267481 4.1236854 -1.0895689
-0.68280214 4.1827006 -1.1701195
-0.75170916 4.2111969 -1.2053816
-1.0791811 4.3808556 -1.4344407
