ply
format ascii 1.0
comment PCL generated
element vertex 459
property float x
property float y
property float z
element camera 1
property float view_px
property float view_py
property float view_pz
property float x_axisx
property float x_axisy
property float x_axisz
property float y_axisx
property float y_axisy
property float y_axisz
property float z_axisx
property float z_axisy
property float z_axisz
property float focal
property float scalex
property float scaley
property float centerx
property float centery
property int viewportx
property int viewporty
property float k1
property float k2
end_header
-0.12227716 0.11911452 0.34680483
-0.12342188 0.12741058 0.34349221
-0.11991894 0.12414092 0.34557071
-0.13447738 0.13846205 0.34505972
-0.12645136 0.13709952 0.34208369
-0.12357602 0.11556322 0.35413802
-0.11943186 0.11757939 0.35606942
-0.13649164 0.12935171 0.3555471
-0.1257775 0.12629275 0.35349765
-0.11950812 0.12324651 0.3543897
-0.13612483 0.13527784 0.35285816
-0.12732929 0.13463707 0.35333925
-0.049694736 0.019971859 0.37097132
-0.042991206 0.020850524 0.37013146
-0.0346082 0.023429316 0.37171286
-0.048769165 0.025443574 0.37107274
-0.041475691 0.02804902 0.37089631
-0.034283947 0.028943311 0.37160131
-0.049285691 0.04664097 0.37084061
-0.041113548 0.042922396 0.36883962
-0.030209478 0.042325385 0.36852062
-0.020884469 0.044224318 0.36984619
-0.060029455 0.059459291 0.37147549
-0.053340085 0.055213321 0.3671664
-0.042026531 0.05406037 0.36323667
-0.030004278 0.053979818 0.36525124
-0.019630956 0.05429586 0.36834672
-0.061052099 0.066279933 0.3696925
-0.054412663 0.066023163 0.3631461
-0.042050663 0.066009767 0.36150625
-0.029993806 0.066074125 0.36433193
-0.018923832 0.066066504 0.36755151
-0.060828861 0.07356175 0.37028003
-0.053514525 0.077688366 0.36604804
-0.04202614 0.078160875 0.36318058
-0.030043174 0.078105547 0.36516598
-0.018476957 0.077875316 0.36902469
-0.049374469 0.084693298 0.37025148
-0.041607853 0.086782411 0.36875281
-0.030140245 0.087957278 0.36882931
-0.020452531 0.086863354 0.37045524
-0.13240631 0.11950291 0.37106779
-0.12552878 0.11353691 0.36577642
-0.11771581 0.1155392 0.36655137
-0.13574703 0.12624343 0.36590278
-0.12620686 0.12828304 0.36605957
-0.11834279 0.12376615 0.36557171
-0.13377623 0.13245536 0.36152071
-0.12953778 0.13246097 0.36191168
-0.078617707 0.16068439 0.37105927
-0.053956661 0.017676787 0.37827563
-0.042376708 0.01978904 0.37826061
-0.033418164 0.022758646 0.37707993
-0.051980313 0.028439635 0.37838405
-0.04295373 0.031659417 0.37689716
-0.029072465 0.028738936 0.37694561
-0.022766026 0.032982457 0.3748982
-0.096255168 0.047563285 0.38389039
-0.089341231 0.046061065 0.38291609
-0.080798514 0.046041496 0.38284451
-0.066627212 0.047017355 0.38361079
-0.05089359 0.043595102 0.37915343
-0.045790356 0.038779728 0.37542242
-0.027230773 0.036430869 0.37309867
-0.020899205 0.038410623 0.37376896
-0.098234914 0.05475625 0.38328645
-0.090000249 0.054001652 0.38074192
-0.078099608 0.054142296 0.3800157
-0.065414533 0.054643579 0.38057038
-0.056553964 0.051671281 0.377121
-0.09822236 0.065790713 0.38285139
-0.090019353 0.066025242 0.37967038
-0.078006551 0.066042148 0.37797537
-0.066094503 0.065639384 0.37609091
-0.097420983 0.075902686 0.38309941
-0.089975029 0.078109719 0.38106892
-0.078059077 0.07807228 0.37885362
-0.065779015 0.077983469 0.37625477
-0.057025764 0.08145421 0.37436622
-0.012807801 0.082226463 0.37256041
-0.011620719 0.081616208 0.37298155
-0.087972306 0.085745707 0.38321018
-0.077248253 0.087887734 0.38164726
-0.065779097 0.089929029 0.37953854
-0.053954389 0.090120554 0.37683693
-0.042147871 0.091870271 0.37572527
-0.030183073 0.093280166 0.37529978
-0.017269939 0.091415517 0.37491608
-0.010320645 0.090904921 0.37663153
-0.12288233 0.10725484 0.38087893
-0.1187703 0.1073705 0.38189876
-0.061955046 0.097969875 0.38250479
-0.053159282 0.099917665 0.38107106
-0.042078026 0.10184547 0.37960434
-0.029837187 0.10196286 0.37983301
-0.01818913 0.10164582 0.38015571
-0.010068857 0.099640369 0.38155061
-0.13318232 0.11824826 0.37901029
-0.12715456 0.11226023 0.37690657
-0.11622541 0.11422963 0.37800264
-0.039781805 0.10964781 0.38261649
-0.030864244 0.10944784 0.38293442
-0.13393638 0.12329956 0.37634516
-0.12584734 0.12688059 0.37799394
-0.11819489 0.12295211 0.37737235
-0.089380495 0.14268491 0.38343209
-0.082075797 0.14317283 0.38367468
-0.089488432 0.150241 0.38100544
-0.077482201 0.15106718 0.37937421
-0.087631561 0.16190706 0.37958217
-0.079970695 0.15994364 0.37565786
-0.075088054 0.0081823785 0.3937352
-0.066177316 0.0094175246 0.39166924
-0.059314366 0.011680792 0.39191252
-0.074047841 0.014851484 0.39420965
-0.06590417 0.017737381 0.39068088
-0.055215329 0.016485291 0.38876095
-0.045392781 0.0226395 0.39012185
-0.086405069 0.034973491 0.39519858
-0.076049842 0.034084637 0.39424935
-0.066045105 0.029973216 0.39124537
-0.055172291 0.030963844 0.38792798
-0.039223943 0.025447845 0.38983095
-0.02986455 0.029558601 0.38987896
-0.022700541 0.032595623 0.38907757
-0.10881714 0.04645396 0.39504814
-0.10110152 0.043408375 0.39096704
-0.090114146 0.04028311 0.38894212
-0.077164575 0.041014709 0.3881709
-0.065971501 0.041513592 0.38671634
-0.054579016 0.040854987 0.3872326
-0.11110503 0.054821339 0.39279243
-0.10420548 0.053297974 0.38678494
-0.072676212 0.048158243 0.38435
-0.064816371 0.048381034 0.3843573
-0.058759883 0.048568744 0.38447744
-0.11169733 0.065897517 0.39190412
-0.10426577 0.065993682 0.38599718
-0.12210906 0.081904583 0.39527121
-0.11329491 0.078565434 0.39287147
-0.10286655 0.07854405 0.38739231
-0.12295499 0.089720443 0.39436576
-0.11404777 0.090069905 0.39152813
-0.10168214 0.089984447 0.39068979
-0.090670355 0.091408081 0.38671064
-0.078882977 0.093662232 0.38557768
-0.070388518 0.095494032 0.38461092
-0.1238327 0.10336404 0.39147189
-0.11393677 0.10261612 0.39172107
-0.10328673 0.10060497 0.39422071
-0.089192219 0.098700866 0.39239559
-0.077702805 0.099492498 0.39132079
-0.066127755 0.10230727 0.3894563
-0.055358876 0.10548023 0.38595197
-0.047848444 0.10674465 0.3840777
-0.016250076 0.10741819 0.38450199
-0.0093989316 0.10544931 0.38559496
-0.13228814 0.11761265 0.38524768
-0.12864873 0.11410177 0.39041367
-0.11536722 0.11397831 0.39019513
-0.1027927 0.11999284 0.39595571
-0.06182513 0.10918089 0.39481702
-0.053252056 0.11226481 0.39112735
-0.042300936 0.11518726 0.38905463
-0.029664431 0.11598334 0.3883521
-0.018210597 0.11405502 0.38976327
-0.009631807 0.11187251 0.39135158
-0.13224676 0.12036185 0.38518536
-0.12555693 0.12227537 0.38833562
-0.11568926 0.12346999 0.38901439
-0.10175021 0.12612176 0.39305487
-0.091869012 0.12869625 0.39227095
-0.038658027 0.1207544 0.39474279
-0.030902354 0.12076237 0.39465618
-0.023872582 0.12068171 0.39598563
-0.10820441 0.13356337 0.39511663
-0.1019673 0.1379811 0.38985986
-0.089464113 0.13819245 0.38910475
-0.079910241 0.13996242 0.39042011
-0.099003002 0.14926499 0.39011243
-0.090795018 0.15024851 0.38966101
-0.078017831 0.14710034 0.38684019
-0.091456324 0.15947925 0.38758576
-0.077984303 0.0065969396 0.40239856
-0.066030443 0.0088909613 0.40192515
-0.059431128 0.011672989 0.40220523
-0.076291636 0.01759943 0.4024308
-0.071413018 0.022624126 0.39906281
-0.053742662 0.014259269 0.40266722
-0.044969011 0.021027615 0.40132186
-0.098608255 0.035085928 0.40484935
-0.090051107 0.032748379 0.40232843
-0.076294854 0.030466897 0.40192425
-0.071452938 0.025765082 0.40029493
-0.039087061 0.025217205 0.40186268
-0.030148106 0.029093005 0.40208104
-0.022821333 0.032357328 0.40209231
-0.11124852 0.044605326 0.40281433
-0.10412263 0.039019886 0.40118611
-0.095014326 0.036433131 0.39751115
-0.11599988 0.05382045 0.40196717
-0.12203461 0.068557478 0.40581265
-0.11794998 0.065329641 0.40073434
-0.13257511 0.082131736 0.40664661
-0.12694803 0.077857159 0.40139523
-0.11742073 0.074095361 0.39750499
-0.13335374 0.090664305 0.40507823
-0.1290517 0.089725897 0.39931133
-0.1339442 0.1026445 0.40486777
-0.1296086 0.101574 0.39890751
-0.099337332 0.10514879 0.39971164
-0.090287521 0.10255951 0.40200934
-0.078160383 0.10378873 0.40198123
-0.069601208 0.10656451 0.40077817
-0.13384643 0.10963432 0.40530929
-0.12656303 0.11524221 0.40119821
-0.11417669 0.11588205 0.39959988
-0.10170534 0.11425536 0.40086159
-0.064055175 0.11116591 0.40249458
-0.054805059 0.11720789 0.40121481
-0.046731636 0.11935195 0.39648277
-0.014738849 0.11904713 0.39958718
-0.0097345915 0.11673403 0.40160033
-0.11165849 0.1260923 0.40171167
-0.10044269 0.12677784 0.40521491
-0.092195436 0.12688583 0.40064856
-0.049732707 0.12108777 0.40452558
-0.041946631 0.12304617 0.40198159
-0.030048767 0.12353981 0.40181515
-0.019432265 0.12156978 0.40278441
-0.10889259 0.134506 0.39956453
-0.10186376 0.13808598 0.4015128
-0.089846872 0.13576716 0.39920172
-0.082762323 0.13785379 0.3972469
-0.099177912 0.14663781 0.39811262
-0.095683597 0.14625479 0.39658251
-0.076189861 0.0078793094 0.41246283
-0.066875197 0.008886924 0.41405261
-0.0751592 0.015520621 0.41202518
-0.068964109 0.01938552 0.41549861
-0.052839112 0.016308811 0.40923885
-0.044365145 0.018686883 0.41409573
-0.099466152 0.03459917 0.41392699
-0.09018334 0.031410832 0.41423625
-0.078539543 0.030948261 0.4140102
-0.06823568 0.028160198 0.4141947
-0.038035449 0.025305633 0.41401297
-0.029994426 0.0289545 0.41400862
-0.022970874 0.032041639 0.41444591
-0.11238611 0.044001717 0.414013
-0.10530456 0.038273785 0.41466182
-0.12055357 0.058077846 0.41403651
-0.11830543 0.052174877 0.41395885
-0.12379082 0.066975951 0.4141295
-0.13393083 0.078861564 0.41429403
-0.13091347 0.073696122 0.41191864
-0.13561228 0.089855164 0.41381687
-0.13891254 0.10170646 0.41370538
-0.096752785 0.10727312 0.41544583
-0.090204418 0.10369046 0.41396233
-0.077855885 0.10442977 0.41416568
-0.070683338 0.10703751 0.41503984
-0.13512796 0.11097429 0.41422236
-0.1259563 0.11666638 0.41394415
-0.11880746 0.11956089 0.41343963
-0.10156835 0.11390989 0.41388202
-0.064857624 0.11196091 0.41382369
-0.056374077 0.11790868 0.41433394
-0.012669126 0.1196107 0.41439936
-0.0097827874 0.11785708 0.41410568
-0.11272795 0.12179933 0.41407874
-0.10445128 0.12352998 0.41065982
-0.050406914 0.12130933 0.41407156
-0.042000316 0.12434483 0.41405198
-0.03004544 0.12487269 0.41402775
-0.018670361 0.1222796 0.41400874
-0.07413809 0.0088124592 0.42818645
-0.066335633 0.0095252814 0.42588732
-0.059670556 0.011960291 0.4267025
-0.074319474 0.015666742 0.42851669
-0.068704106 0.019192083 0.42448124
-0.053892244 0.014733886 0.42912045
-0.044428669 0.01965641 0.42587346
-0.097590119 0.03534257 0.42263332
-0.089437179 0.03400977 0.42487401
-0.07889419 0.03382396 0.42478567
-0.068709813 0.029846406 0.42644587
-0.038529575 0.025319232 0.42666847
-0.029932423 0.029196814 0.42590201
-0.022786357 0.032358572 0.42620313
-0.11060818 0.045139946 0.42494968
-0.10285675 0.039791323 0.42672241
-0.091752335 0.036715701 0.43037197
-0.076716855 0.036771737 0.43063632
-0.071236409 0.036756206 0.43090829
-0.12017959 0.059072021 0.42070767
-0.11570586 0.053722907 0.42610133
-0.12388986 0.069890648 0.424548
-0.11723042 0.065377668 0.42763111
-0.13405229 0.079167321 0.42521057
-0.13009763 0.073722787 0.42718828
-0.13548894 0.090215124 0.42575985
-0.088930607 0.093281209 0.42945316
-0.080339 0.094662026 0.43113098
-0.13887721 0.10173664 0.4258101
-0.099651575 0.10545249 0.42750147
-0.091151245 0.10013469 0.42513159
-0.077773556 0.099995047 0.42572796
-0.068058841 0.10404406 0.42722061
-0.1344882 0.11064299 0.42502436
-0.12586182 0.1159611 0.42605999
-0.11409909 0.11851817 0.42849541
-0.10509957 0.11323261 0.42542553
-0.062805004 0.11079108 0.42477491
-0.054707889 0.11589034 0.4267385
-0.044619385 0.11873779 0.43019035
-0.029506726 0.119541 0.43164566
-0.016201572 0.11803558 0.42835307
-0.0094749918 0.11501238 0.42642394
-0.11254226 0.12064356 0.42357925
-0.049323078 0.12071936 0.42257291
-0.0413264 0.12247442 0.42503947
-0.030027803 0.12270432 0.42582393
-0.019982697 0.12157208 0.42402032
-0.074362218 0.0089565562 0.43761256
-0.066866256 0.0096869739 0.43814856
-0.074550413 0.016296215 0.43812194
-0.066794544 0.020219302 0.44045013
-0.054003216 0.017053083 0.43974903
-0.044323996 0.019405523 0.43901351
-0.035217047 0.023198174 0.44382793
-0.064875387 0.029887334 0.43679261
-0.05380949 0.030160066 0.44030914
-0.041019339 0.028077703 0.43714127
-0.029974718 0.029657042 0.43622643
-0.022643901 0.033062842 0.43525997
-0.10862612 0.047902651 0.43208641
-0.1008622 0.044283308 0.4351432
-0.089868553 0.042164177 0.43734762
-0.078138202 0.042137355 0.43722984
-0.066409349 0.041857295 0.43892384
-0.053948402 0.041989058 0.43889576
-0.045095153 0.041943833 0.44019711
-0.1100483 0.055155184 0.43383825
-0.10236996 0.054000799 0.43969923
-0.090250641 0.051199608 0.44301555
-0.076480873 0.052232232 0.44303194
-0.066043787 0.053976107 0.44225872
-0.054218803 0.053510483 0.44083801
-0.046634205 0.049521778 0.4426344
-0.12453 0.070421755 0.43826032
-0.11332086 0.068242356 0.43664896
-0.10234277 0.065718673 0.44028264
-0.090705164 0.06841708 0.44317466
-0.075552762 0.067610681 0.44301119
-0.06621781 0.065284729 0.44302192
-0.058172818 0.061667785 0.44227839
-0.13302055 0.079898804 0.43746525
-0.13038522 0.073946498 0.4387438
-0.10996073 0.073256865 0.44175461
-0.10188655 0.07730221 0.43892771
-0.090010136 0.077960081 0.43973076
-0.0779787 0.078072958 0.44120792
-0.067761607 0.079818338 0.4428643
-0.13423124 0.090339035 0.43779019
-0.13176037 0.084347032 0.44376221
-0.10864189 0.095412396 0.44280991
-0.10071762 0.090494499 0.43985868
-0.09110333 0.088596188 0.43447044
-0.077596568 0.089292653 0.43548667
-0.065996207 0.090070754 0.43951362
-0.054426964 0.09113501 0.44302109
-0.044788182 0.093089305 0.44382474
-0.0082622096 0.095711708 0.4438177
-0.13466653 0.10104918 0.43670368
-0.12855969 0.10500825 0.44132659
-0.11219464 0.10322203 0.43962666
-0.10271549 0.10021456 0.43575388
-0.095230199 0.097384244 0.43308428
-0.072806656 0.096068911 0.43224391
-0.064064771 0.10031601 0.43512911
-0.054056507 0.10203106 0.4396846
-0.041739274 0.10232486 0.44213119
-0.031144854 0.10416131 0.44123423
-0.017333828 0.10481925 0.44112605
-0.0096658031 0.10281372 0.43984526
-0.13287039 0.10857696 0.43319094
-0.1247761 0.11155424 0.43696159
-0.11427008 0.11322458 0.43617463
-0.10765892 0.10880068 0.43220282
-0.052200586 0.11128423 0.43481663
-0.041261721 0.11343366 0.43624511
-0.030102393 0.11401793 0.43604621
-0.018116113 0.11238149 0.4356623
-0.0099729476 0.10975837 0.43384412
-0.067430153 0.010892367 0.44520068
-0.065485887 0.016257985 0.44581145
-0.054876935 0.018386895 0.44487208
-0.042020991 0.021545455 0.44909635
-0.034634355 0.023400627 0.44839481
-0.048897374 0.026748011 0.44558531
-0.042233799 0.029994583 0.45080575
-0.03019443 0.029295662 0.45063168
-0.022623651 0.033430025 0.44909903
-0.039593048 0.043006502 0.44754383
-0.030059796 0.042079959 0.45015001
-0.020837497 0.042289328 0.44967771
-0.096020162 0.058018357 0.4440273
-0.090009347 0.056616247 0.44464958
-0.080082163 0.056278948 0.44474962
-0.050310124 0.057432882 0.44720703
-0.042026777 0.053904083 0.451379
-0.030849203 0.052711923 0.45457676
-0.019246306 0.053445615 0.45420468
-0.12282716 0.07167393 0.44474301
-0.11792918 0.071614817 0.44431379
-0.089151405 0.063039802 0.44488829
-0.080307603 0.064494051 0.44468793
-0.06352865 0.070764214 0.44458124
-0.054938287 0.065678991 0.45049506
-0.043262448 0.061875623 0.45517036
-0.028937906 0.063330412 0.45589435
-0.017650615 0.066159181 0.45483917
-0.12587823 0.078262359 0.44740739
-0.11421172 0.077810198 0.44973946
-0.10598511 0.080457762 0.4476569
-0.064123861 0.076053523 0.44453079
-0.054949686 0.078312092 0.45046031
-0.045784887 0.082818955 0.45526853
-0.025399027 0.07865952 0.45580226
-0.017840426 0.078463912 0.45382133
-0.011554067 0.080974355 0.45123687
-0.13212924 0.0920856 0.44425002
-0.12662096 0.089813583 0.44973144
-0.1138288 0.090287909 0.45108828
-0.1059967 0.088124491 0.44751552
-0.052088879 0.085927539 0.44656992
-0.041537926 0.090094671 0.44940799
-0.030184153 0.089990482 0.45205137
-0.018111756 0.089849293 0.44995007
-0.010461531 0.091004059 0.44711068
-0.12512954 0.10027643 0.44695982
-0.11684627 0.10006333 0.44685706
-0.043367326 0.096538603 0.44406092
-0.028604442 0.098842598 0.44627392
-0.01866225 0.099214666 0.4459787
-0.010924784 0.097191311 0.44460887
-0.028422924 0.057462789 0.45635346
-0.021979669 0.058002397 0.45643139
-0.050016504 0.068719298 0.45676526
-0.041556563 0.067702115 0.45719513
-0.029971872 0.066161506 0.45741972
-0.02182387 0.065832652 0.45634055
-0.049350586 0.074823581 0.45656031
-0.041560952 0.077643067 0.45695147
-0.030441657 0.077939004 0.4569616
-0.022439862 0.073044457 0.45628056
-0.038645372 0.084168285 0.45601961
-0.035336472 0.08401823 0.45601109
0 0 0 1 0 0 0 1 0 0 0 1 0 0 0 0 0 459 1 0 0
