# .PCD v0.7 - Point Cloud Data file format
VERSION 0.7
FIELDS x y z
SIZE 4 4 4
TYPE F F F
COUNT 1 1 1
WIDTH 1421
HEIGHT 1
VIEWPOINT 0 0 0 1 0 0 0
POINTS 1421
DATA ascii
0.0344381 0.102088 0.034179501
0.034493301 0.092919201 0.039480198
-0.053876001 0.126919 0.0361236
-0.0048575201 0.103786 0.043975402
0.00705483 0.113673 0.0402142
-0.0648688 0.093891598 -0.018370099
-0.0473301 0.13480701 0.0120125
0.038248599 0.104643 0.027312299
-0.0548518 0.122696 0.038247801
0.0107799 0.054882102 0.052327
0.0116668 0.054895099 0.051858898
0.0124372 0.0548875 0.051219199
0.0131577 0.054863099 0.050493501
0.013902 0.054864999 0.049814701
0.0146633 0.054853499 0.049155299
0.0154848 0.0548588 0.048587698
0.0164447 0.054885201 0.0482217
0.0175889 0.054938599 0.048122801
0.018727999 0.054999899 0.0480114
0.019690501 0.0550135 0.047657002
0.0205756 0.055031698 0.047180898
0.021299399 0.055002801 0.046460401
0.0220311 0.0550166 0.045765601
0.022681 0.054980401 0.044937301
0.0233417 0.054986399 0.044150401
0.023995901 0.0549509 0.043323599
0.0247244 0.054972101 0.042625099
0.0255474 0.054922 0.042038601
0.026425401 0.054947 0.041554
0.027252 0.054948799 0.040991802
0.028038699 0.0549866 0.040370502
0.028889 0.054976702 0.039837301
0.029772401 0.054990299 0.039362799
0.0306109 0.054984201 0.038821001
0.031389501 0.054964501 0.038183399
0.032135401 0.054969698 0.037508499
0.032824699 0.054954998 0.036748301
0.033505499 0.054939501 0.035978202
0.0341544 0.054886099 0.035140298
0.0347756 0.054851402 0.034276798
0.035400201 0.054813001 0.033416498
0.036037099 0.054770201 0.032568701
0.036713202 0.054755099 0.031784501
0.0303449 0.112749 0.031739902
-0.0559485 0.119826 0.038362801
0.045424499 0.090404399 0.0131633
-0.057543799 0.119835 0.0395668
-0.0585001 0.119809 0.039934199
0.0455462 0.086195402 0.016167
0.0288925 0.112764 0.0331675
0.047564801 0.055380199 0.031711001
0.048403099 0.055384099 0.03118
0.049194001 0.055373002 0.030576
0.050054401 0.055397399 0.0300563
0.050943501 0.055413101 0.029581999
0.051805802 0.055399898 0.0290848
0.052667901 0.0554283 0.0285725
0.053409498 0.055393402 0.027876901
0.0541315 0.0553714 0.0271399
0.0547917 0.055370402 0.026350301
0.055400498 0.055351101 0.0254886
0.056033701 0.0553031 0.024595199
0.056671798 0.055300899 0.0238011
0.057267401 0.055257902 0.022877701
0.057826199 0.055226699 0.0219335
0.039875701 0.096657999 0.0297176
0.0393482 0.0966985 0.030688601
0.0136046 0.121889 0.033906501
0.0190336 0.11528 0.0364777
0.0455391 0.087594599 0.0141649
0.043816499 0.095935501 0.0191615
-0.0747362 0.0663817 0.0145125
0.0329828 0.110047 0.030266101
0.0111265 0.120476 0.035576101
-0.050732799 0.121196 0.033597901
-0.049359299 0.121175 0.032055002
0.043695401 0.095926799 0.0201595
-0.052923199 0.125495 0.035753299
0.027764799 0.098182 0.042057801
0.032179199 0.092941597 0.0413986
-0.046455 0.12672199 0.025692699
0.0235113 0.118015 0.0324132
-0.0483573 0.12963501 0.0282843
-0.051390201 0.122634 0.034437802
-0.047824599 0.129609 0.027299
-0.0509363 0.12689801 0.033337601
-0.049576901 0.12687699 0.031787399
-0.0489995 0.126854 0.0308899
-0.0469166 0.129554 0.025036201
0.010951 0.056286398 0.052579999
0.0118426 0.056293301 0.052128401
0.012618 0.056286599 0.051494699
0.013378 0.056283001 0.050829899
0.0141304 0.056278002 0.0501629
0.0148603 0.056253899 0.049459901
0.015735099 0.056270398 0.0489701
0.0167477 0.056307402 0.048679899
0.0178908 0.056358799 0.0485803
0.0189816 0.056397598 0.0484166
0.0199591 0.056412701 0.048072498
0.0208153 0.056441199 0.047540601
0.021575199 0.056435999 0.0468827
0.022288499 0.056416601 0.046146899
0.0229642 0.056410301 0.0453711
0.0236359 0.056409001 0.0445932
0.0243198 0.056405101 0.043820702
0.0251418 0.056414999 0.043248199
0.026014701 0.056389499 0.042743701
0.026817299 0.0563551 0.042139299
0.0275656 0.056364201 0.0414619
0.028366899 0.0563832 0.040863499
0.0292092 0.056377299 0.040322501
0.0300864 0.056400299 0.039835099
0.030957 0.0564285 0.039334301
0.0317881 0.056427799 0.038782999
0.032566901 0.056409799 0.038151599
0.0332799 0.056437299 0.0374441
0.0339261 0.0564017 0.036618099
0.034582 0.0563647 0.035792802
0.035176799 0.056300201 0.034865901
0.035758499 0.0562848 0.033975501
0.0363518 0.056215901 0.033044901
0.036984801 0.056176201 0.032200001
0.037722699 0.056174699 0.0314909
0.039616901 0.084307201 -0.0127653
0.0362687 0.094182298 0.036811698
-0.00109314 0.103948 0.0441727
-0.048325099 0.123967 0.0299918
0.0484167 0.056747101 0.0312254
0.0492859 0.0567642 0.030711601
0.050166801 0.056778699 0.030228401
0.051076099 0.056788899 0.0297952
0.0519851 0.056798398 0.029357901
0.052854501 0.0568172 0.0288563
0.053630099 0.056808699 0.028214799
0.054344799 0.056788601 0.0274783
0.054990798 0.0567623 0.026639599
0.055593599 0.056747202 0.025768399
0.056198802 0.0567015 0.0248562
0.056820501 0.056679599 0.0240006
0.057446498 0.056657501 0.0231489
0.058076501 0.056603801 0.0222343
0.029871 0.096888699 0.041592699
-0.0050524701 0.102417 0.043808099
-0.058263902 0.12123 0.040295798
-0.046929799 0.12675101 0.026776001
0.0099296002 0.113714 0.039091099
-0.049721099 0.131062 0.0298847
0.040094901 0.095337003 0.0300286
-0.0517083 0.13112301 0.0322407
0.021919001 0.118008 0.0336347
0.039227702 0.108354 0.0091662202
-0.050989401 0.131098 0.031541701
-0.050230201 0.126885 0.032631502
0.0108689 0.057642601 0.052477799
0.0118091 0.057664499 0.052080099
0.0126063 0.0576596 0.0514859
0.013386 0.057666101 0.050854102
0.0141618 0.057652298 0.0502255
0.0150017 0.0576648 0.049665399
0.015898099 0.057676401 0.0492073
0.016915999 0.0577101 0.048922502
0.0180643 0.0577618 0.048836101
0.019155901 0.057799499 0.048679899
0.020119 0.0578214 0.048316501
0.0209984 0.057839502 0.047821399
0.0217645 0.057833001 0.047167599
0.0224822 0.057810601 0.046436299
0.0231825 0.057795599 0.045685198
0.023852 0.057789002 0.044902701
0.024592901 0.0577938 0.0442192
0.0254863 0.057806902 0.043747
0.026358699 0.057787701 0.0432503
0.027161499 0.057804201 0.042655598
0.027906001 0.0578072 0.041975901
0.028653299 0.057811301 0.041296501
0.0295012 0.0578054 0.0407589
0.030376799 0.057824701 0.040271599
0.031220799 0.057818402 0.039734401
0.032068301 0.0578123 0.039204601
0.0328914 0.057817198 0.038628999
0.033644099 0.0578174 0.037960101
0.034306899 0.0578226 0.0371782
0.034969501 0.057782799 0.0363582
0.035604902 0.057758301 0.0355158
0.0361089 0.0577094 0.034473699
0.036657799 0.0576635 0.033511199
0.0372748 0.0576283 0.032644399
0.0379248 0.057587199 0.0318029
0.049325999 0.058136102 0.030769801
0.050240401 0.058152702 0.030355001
0.0511798 0.058178399 0.029952001
0.052076899 0.058190901 0.029499199
0.052929699 0.058190599 0.02898
0.053736798 0.058196299 0.0283843
0.054459602 0.058178 0.027656799
0.0551355 0.0581678 0.0268835
0.055720098 0.058130201 0.025955601
0.056314699 0.058089402 0.0250386
0.056929599 0.058068998 0.024171
0.057612501 0.0580597 0.0234109
0.058244001 0.058034401 0.022564201
0.058755901 0.057992201 0.0215357
0.036605701 0.095490903 0.0355184
0.032733101 0.094263598 0.040444899
0.044437598 0.095972501 0.0121619
0.032564301 0.098176599 0.038476098
-0.052762698 0.115451 0.034109
0.037870198 0.100686 0.0303226
0.0243457 0.102123 0.042402901
0.00551455 0.110936 0.0415028
0.026726199 0.114038 0.0335472
-0.052072302 0.122646 0.035210501
0.024552001 0.110059 0.037428699
-0.0489146 0.121146 0.030967901
0.00882114 0.058920901 0.053036001
0.0117081 0.0589891 0.051959299
0.0124938 0.0589954 0.051327799
0.0132853 0.0589897 0.050716501
0.0141254 0.058989398 0.050181601
0.0150592 0.059017699 0.049764901
0.016004801 0.059043501 0.049366701
0.0170299 0.059074499 0.0491032
0.0181085 0.0591163 0.048901401
0.019201299 0.059155598 0.0487522
0.020216901 0.059190601 0.048460498
0.021113999 0.059202101 0.048003599
0.021850999 0.059183601 0.047303699
0.0226226 0.059192602 0.0466634
0.023331899 0.059176002 0.045923699
0.024031799 0.0591603 0.045176402
0.024788 0.059158199 0.044511799
0.025713701 0.059191801 0.044093799
0.0266247 0.0591987 0.043652799
0.027447401 0.059165299 0.043080602
0.028131301 0.0591962 0.042316802
0.028843399 0.059173498 0.041586399
0.029667299 0.059177499 0.0410177
0.030537199 0.059202202 0.0405121
0.031431898 0.059214 0.040050499
0.032343298 0.059217799 0.039614301
0.033177 0.059219699 0.039062399
0.033899501 0.0591949 0.038340401
0.034603398 0.0592134 0.037626401
0.035264999 0.059179101 0.036807701
0.035893898 0.0591552 0.035962801
0.036444198 0.059095301 0.034959499
0.036979999 0.059075899 0.0339965
0.037522901 0.059030902 0.0330268
0.038098201 0.058972601 0.032078601
0.038780101 0.058952998 0.031305999
-0.0551272 0.047833901 0.040049698
-0.00144558 0.106667 0.0437112
0.045511499 0.086191297 0.0171661
0.051221699 0.059524499 0.030012
0.052112699 0.059538301 0.029552801
0.052967701 0.059544601 0.029044099
0.053802598 0.059549902 0.028492499
0.054562502 0.059542701 0.0278248
0.055254702 0.0595292 0.0270628
0.055853602 0.059488401 0.0261475
0.056464501 0.059466802 0.0252844
0.0571049 0.059443701 0.024440801
0.057731599 0.0594186 0.0235899
0.0583601 0.059396401 0.0227402
0.0589085 0.059368402 0.0217913
0.031713501 0.095563099 0.0407455
-0.057285599 0.125533 0.039988801
0.039771799 0.094044499 0.031303
0.039592501 0.097979397 0.0293107
0.037727501 0.092842102 0.0353087
0.0064643198 0.110948 0.041112401
0.031913299 0.103439 0.035773698
0.022957001 0.098190702 0.045662198
-0.055069201 0.121281 0.0379498
0.045492601 0.087589704 0.015162
0.027016301 0.115378 0.032211099
0.045829501 0.0890233 0.0081703896
0.044952299 0.094596297 0.0061678099
0.0284451 0.114053 0.032522898
0.0275851 0.114088 0.0330397
0.040342201 0.10564 0.0161674
0.044875499 0.0917539 0.00218552
0.036425099 0.084050499 -0.016726701
-0.0078768497 0.105931 -0.0227718
0.0063841701 0.060281001 0.054783098
0.0072890599 0.0602827 0.054351099
0.0082431696 0.060292698 0.053984798
0.0090210997 0.0602846 0.053356901
0.0098532801 0.0602892 0.052798599
0.0107752 0.0603237 0.052368801
0.0116378 0.0603198 0.0518663
0.0123855 0.060317401 0.051184099
0.0132697 0.060332399 0.050702799
0.014169 0.060341801 0.050255001
0.0151319 0.0603601 0.049899202
0.016129199 0.060403101 0.049573399
0.017085001 0.060422398 0.0492086
0.0180964 0.0604579 0.048896398
0.019174499 0.060499001 0.048707802
0.0201512 0.0605237 0.048385199
0.0211099 0.060549099 0.048013899
0.0219313 0.060551301 0.0474343
0.0226823 0.060545199 0.046760201
0.023391001 0.060529601 0.046018701
0.0241246 0.060525302 0.045324501
0.0249679 0.0605263 0.0447882
0.0258836 0.060534898 0.0443599
0.026825899 0.060562201 0.043960899
0.0276605 0.0605608 0.0434107
0.0283556 0.0605487 0.042652801
0.029036701 0.060539 0.041875299
0.029812999 0.060558502 0.041244902
0.0306718 0.0605569 0.040718701
0.031574801 0.060558598 0.0402762
0.032536302 0.060581699 0.039911401
0.033378601 0.06058 0.039369501
0.034114201 0.060585901 0.038675901
0.034815099 0.060568899 0.037928499
0.035501301 0.060558099 0.0371681
0.0361371 0.060535502 0.036325499
0.0367672 0.060514599 0.035480399
0.037308902 0.060486902 0.034523599
0.037801199 0.060421102 0.033427201
0.038355101 0.060373701 0.032466698
0.038889401 0.060327001 0.0314833
0.039575201 0.060298499 0.030700499
0.040356401 0.060289498 0.0300713
-0.059124101 0.1154 0.037196301
-0.049005602 0.122549 0.0307687
0.051150799 0.060857501 0.029927401
0.0520606 0.060874201 0.029495399
0.052946799 0.060889401 0.0290245
0.0537838 0.0608937 0.028473901
0.054585699 0.060894702 0.0278753
0.055316199 0.060880698 0.027160401
0.056004401 0.060862198 0.0263962
0.056653202 0.0608369 0.025565101
0.057280101 0.0608152 0.0247108
0.057886701 0.060794301 0.0238444
0.0584586 0.0607609 0.022909001
0.058987498 0.060729101 0.021950999
0.039042499 0.095398299 0.032031201
0.035060201 0.096843898 0.036809899
0.031666901 0.110076 0.031886499
-0.0535658 0.13254599 0.033063401
0.0393029 0.10195 0.0270711
0.0387947 0.101959 0.0281808
0.0417112 0.0986332 0.024166901
-0.065550998 0.112475 0.040245
-0.047320299 0.122487 0.0279328
-0.050726298 0.122615 0.033603299
0.0080193197 0.113693 0.039859701
0.045431402 0.088986002 0.0031764
-0.047894701 0.122501 0.0288841
0.040623199 0.095305704 0.0289912
0.037710302 0.095507301 -0.0098422598
-0.071835503 0.075749204 0.036919098
-0.0530781 0.119794 0.035482801
-0.0587859 0.118384 0.039498199
0.045679301 0.089009702 0.00617442
-0.051645201 0.119776 0.034033898
0.0076607899 0.061675299 0.054913901
0.0086051598 0.061703 0.054525599
0.0094644902 0.061692301 0.0540126
0.0102284 0.061688699 0.053355101
0.0109283 0.061683901 0.052631401
0.0116633 0.0616767 0.0519085
0.0125203 0.061666898 0.051402599
0.0134639 0.061694901 0.051009599
0.0144567 0.061741501 0.0506755
0.0153695 0.0617406 0.050258201
0.016314 0.061771002 0.049860701
0.017204599 0.061783999 0.049393099
0.018100901 0.061786301 0.048903801
0.0190254 0.061825 0.048492901
0.020052699 0.061855499 0.048233699
0.0210051 0.0618768 0.047854599
0.021895399 0.061891999 0.047386602
0.0226817 0.0618915 0.046769101
0.0234288 0.061880901 0.046089198
0.024130501 0.061867502 0.045342799
0.0250243 0.0618819 0.044880699
0.025971301 0.061904401 0.044493299
0.026913 0.061927099 0.044094902
0.0277553 0.0619298 0.043560501
0.028511399 0.061926801 0.0428923
0.0292021 0.061914202 0.042131402
0.0299135 0.061894499 0.041395701
0.030793499 0.061912399 0.040912099
0.031734601 0.0619381 0.040515501
0.032659199 0.0619445 0.040106598
0.033493999 0.061946198 0.039549701
0.0342924 0.061955601 0.038948201
0.034998499 0.0619413 0.038204901
0.035675298 0.061931901 0.0374332
0.036302201 0.0619082 0.036584102
0.036941301 0.061885301 0.035744801
0.037570398 0.061862901 0.0348997
0.038092401 0.061815199 0.033877399
0.0386074 0.061770201 0.0328492
0.0391514 0.061723899 0.031880401
0.039696898 0.0616754 0.030906601
0.0403147 0.061632 0.0300225
0.045868501 0.086213298 0.0111669
0.029030399 0.096872501 0.0421292
-0.048119999 0.128214 0.028687
0.0519577 0.062196601 0.0293389
0.052857399 0.062218498 0.028895499
0.0537262 0.062224101 0.0283948
0.054528501 0.062232401 0.027799601
0.055321101 0.0622297 0.027192101
0.0560342 0.0622175 0.026460201
0.056717198 0.062196702 0.0256596
0.0573764 0.062179301 0.0248727
0.0579498 0.062146898 0.023937199
0.058503501 0.062113199 0.022986799
0.0589788 0.062132999 0.0220601
-0.063046299 0.113863 0.038554698
0.024599399 0.098192103 0.0445203
-0.064981602 0.114139 0.042967498
0.035696998 0.096800998 0.036015499
0.0086338297 0.115058 0.039000701
0.041710898 0.095764101 -0.00380547
0.0101968 0.116422 0.0377394
0.034067001 0.098156899 0.0371457
-0.053656001 0.116868 0.0345992
0.033385798 0.103442 0.0343819
0.039532501 0.105566 0.0221621
-0.060608301 0.118309 0.040375799
0.00564306 0.109569 0.0416563
-0.00135222 0.101336 0.0444015
0.0069231899 0.063036896 0.0555875
0.0079329005 0.063073903 0.055296
0.0089003602 0.0630937 0.0549611
0.0097987596 0.063108899 0.0545118
0.010569 0.063075803 0.053871699
0.0111874 0.063026801 0.052941199
0.0119148 0.0630446 0.052296299
0.0129339 0.063079 0.052014101
0.0138934 0.063100398 0.051647499
0.0147818 0.063115299 0.051172301
0.015662501 0.063137501 0.050686602
0.0165486 0.063154399 0.0502063
0.017379301 0.063158303 0.049653001
0.0182222 0.063160799 0.049122799
0.0189895 0.063155897 0.048476599
0.0198889 0.063174702 0.048019499
0.0208176 0.063197501 0.047600199
0.021717601 0.063208804 0.0471364
0.022581499 0.063220702 0.046629399
0.02338 0.063221298 0.046021301
0.024135601 0.063215204 0.045353401
0.025012501 0.063224897 0.044876602
0.025956901 0.063249104 0.044484399
0.0268989 0.063271403 0.044082999
0.0277812 0.063284002 0.043605398
0.028571101 0.063276701 0.042990498
0.029319599 0.063273199 0.042313099
0.030057799 0.063272104 0.0416198
0.0308902 0.063276902 0.041059099
0.031754401 0.063277103 0.040573299
0.032719299 0.063297898 0.0402054
0.033596098 0.063311301 0.039747301
0.0344101 0.063316502 0.039125498
0.035149399 0.063317299 0.038442001
0.035838801 0.063303001 0.037689298
0.036469601 0.063279703 0.036844499
0.037098501 0.063258499 0.035999499
0.037719101 0.063214302 0.035098601
0.0383109 0.063202903 0.034225199
0.038908001 0.063163199 0.033303
0.039464101 0.063132003 0.032359
0.039889999 0.063059799 0.0312004
0.040393598 0.062992498 0.0301493
0.035670199 0.108162 -0.0048213499
0.037225801 0.108268 -0.00083448499
0.0194941 0.107309 0.040648401
0.051691402 0.0635003 0.028960699
0.052639298 0.063521698 0.028580099
0.0535357 0.063542798 0.028124001
0.054423299 0.063556798 0.027651601
0.0552187 0.063564703 0.027040999
0.055975199 0.063554399 0.026374901
0.0566888 0.063544601 0.025635799
0.057340499 0.063519202 0.0248021
0.057935301 0.063488699 0.0239229
0.058497801 0.063454598 0.0229811
0.0387628 0.10462 0.0262683
-0.052815098 0.132539 0.032386299
-0.029023901 0.091856599 -0.0266024
-0.0023423301 0.10113 0.044176001
0.00772266 0.115023 0.039409701
-0.064226203 0.115635 0.044103801
0.0092285797 0.116392 0.0380826
0.016831599 0.092697799 0.0490711
-0.0538049 0.048637301 0.0382673
0.0311691 0.094244897 0.0417029
0.021190099 0.113994 0.036098301
0.039537799 0.100622 0.0273876
0.0390778 0.105565 0.0241719
-0.0458268 0.12529799 0.024765801
0.0354218 0.100763 0.033840299
0.0390714 0.108406 0.0131668
0.0209137 0.102084 0.044451602
0.0189959 0.104672 0.0434338
0.0111403 0.105858 -0.0199086
0.0089463601 0.064444497 0.055029001
0.0098313 0.064461797 0.054553501
0.0106165 0.064453602 0.053938299
0.0113423 0.064437099 0.0532354
0.0122384 0.064436801 0.052786399
0.0132903 0.064491503 0.052541699
0.0142425 0.064514801 0.052159499
0.0151151 0.064503402 0.0516546
0.0158912 0.064486802 0.051029898
0.0166896 0.0645037 0.050425
0.0175453 0.064532503 0.049902301
0.0183954 0.064528599 0.049377501
0.0191746 0.064522997 0.048747301
0.019930501 0.064520597 0.0480779
0.0207575 0.064528897 0.047518399
0.021598199 0.064536601 0.046975002
0.022436099 0.064546399 0.046427
0.023254899 0.064550601 0.045853101
0.0240878 0.064555198 0.045296799
0.0249807 0.064567402 0.044832401
0.0258782 0.0645831 0.044378899
0.026860001 0.064609103 0.0440244
0.0277273 0.064618401 0.0435417
0.028594701 0.064631604 0.043030702
0.029375199 0.064627104 0.042402402
0.0301266 0.064619698 0.041729201
0.030942099 0.064625397 0.041141499
0.031779598 0.064774401 0.040627401
0.032724701 0.0646521 0.040209901
0.033650301 0.064663701 0.0398008
0.034493301 0.064679302 0.039256699
0.0352313 0.064663999 0.038564101
0.0359549 0.064662702 0.0378653
0.036612298 0.064635001 0.037043702
0.037252299 0.064611301 0.036205601
0.0378584 0.064591803 0.035340302
0.038428701 0.064557999 0.034402799
0.0390555 0.064539 0.0335561
0.039638601 0.064502001 0.0326274
0.040050101 0.064446799 0.031484101
0.0404558 0.064357497 0.030249501
0.040988602 0.0643095 0.029269099
0.0416741 0.064280398 0.028492101
0.042468201 0.0642865 0.0278791
0.025364701 0.107408 0.0385761
0.026322201 0.107421 0.038206998
0.0523558 0.064799197 0.028140699
0.053298 0.064821698 0.0277585
0.054159101 0.064861298 0.027274299
0.0550352 0.064866997 0.026786501
0.055814698 0.064873002 0.0261542
0.056541 0.064854003 0.0254614
0.057215899 0.064846501 0.024658
0.057850301 0.064824402 0.023814499
0.0584157 0.064788297 0.022871999
0.0589424 0.064749002 0.0219118
0.059454001 0.064707503 0.0208869
0.038438201 0.095425799 0.032890599
-0.048952501 0.123989 0.0308621
-0.0038218601 0.102465 0.043843899
0.043559901 0.098737098 0.0131605
0.027225601 0.10745 0.037774101
-0.063822001 0.115596 0.042910598
0.00821862 0.116409 0.0384227
0.0280941 0.107442 0.037275799
0.0289072 0.10744 0.036703698
0.036408599 0.085445501 -0.016705699
0.029635601 0.107455 0.036004499
0.020294299 0.113982 0.0365633
-0.048746198 0.118344 0.031163
0.0388075 0.10554 0.025166901
-0.046321601 0.125305 0.025834501
0.037277099 0.100696 0.031256601
0.0303546 0.107428 0.035301801
0.031062599 0.107429 0.034566302
0.031740598 0.107408 0.033794701
0.037507199 0.103901 -0.0058441302
0.032376099 0.107397 0.032947
0.033011399 0.107386 0.0320976
0.0098089399 0.0658051 0.054528899
0.0106377 0.065812401 0.053965099
0.0114981 0.065806299 0.053471599
0.0125705 0.0658518 0.053269401
0.0135851 0.065884702 0.0529797
0.0144807 0.065897398 0.052516501
0.0152433 0.065891199 0.051871099
0.0160126 0.065882899 0.051217798
0.016827401 0.065891102 0.0506364
0.0176716 0.065889798 0.050099101
0.018533099 0.065880999 0.049584799
0.019407701 0.065899998 0.049093802
0.020146601 0.065875404 0.048397198
0.0209269 0.065895602 0.047769301
0.0216497 0.065880999 0.047048502
0.022372801 0.065881401 0.0463438
0.023184299 0.065886803 0.045761202
0.024015799 0.065888301 0.0452055
0.0249025 0.0659023 0.0447242
0.025838399 0.065919198 0.044314399
0.0267481 0.0659374 0.043882798
0.027646599 0.065954298 0.043432198
0.0285253 0.065964997 0.0429423
0.029351801 0.065969199 0.042380601
0.0301634 0.065971702 0.041789498
0.030949499 0.065968998 0.041175
0.0318042 0.066152297 0.040668301
0.0327067 0.065993302 0.0401778
0.033594999 0.066005498 0.039721999
0.034460101 0.066013597 0.039221399
0.035271998 0.066016398 0.038635202
0.035985898 0.066003397 0.037900198
0.0366758 0.065988801 0.0371374
0.0373151 0.0659642 0.036298499
0.037951902 0.065939799 0.0354557
0.038582001 0.065917701 0.034605999
0.0391807 0.065881401 0.033683199
0.039739199 0.065864302 0.032797199
0.040124599 0.065799102 0.031582501
0.040511701 0.065714501 0.030334899
0.0410401 0.065670498 0.029359
0.041608501 0.065621302 0.0284032
0.0422961 0.065599397 0.0276352
0.033677701 0.107392 0.031272601
0.0404169 0.104204 0.0201615
0.0073977499 0.110951 0.040675301
0.034388602 0.107359 0.0305696
0.0350466 0.107363 0.029738599
0.053871602 0.066144802 0.0268494
0.054745201 0.066148102 0.0263648
0.055583201 0.066171497 0.025830399
0.056296699 0.0661688 0.0251012
0.056992099 0.066153601 0.024351399
0.057645101 0.066139601 0.0235216
0.0582502 0.0661055 0.022658199
0.058814101 0.066069797 0.021719901
0.059349801 0.066037998 0.0207029
0.0234256 0.0994865 0.044581801
0.0145806 0.095317297 0.049324598
-0.0310269 0.122601 -0.0056393999
0.0082628299 0.110977 0.040210299
0.035673302 0.107346 0.028881
0.026869999 0.0981666 0.042522501
-0.063400798 0.115527 0.041724201
0.0072702798 0.11232 0.040518999
0.0082325302 0.112336 0.040154502
0.026784999 0.095553502 0.044160102
0.036331199 0.107346 0.028041201
0.0369412 0.107321 0.0271722
0.0435098 0.098719001 0.0141568
0.037500001 0.107296 0.026214899
-0.050156299 0.11976 0.032673199
0.045512501 0.091812097 0.0101608
-0.046827201 0.125328 0.0268353
0.045271799 0.091799498 0.0131601
0.0451896 0.0875706 0.019166499
0.0199962 0.120682 0.0326204
0.0190263 0.120653 0.032974601
0.0272712 0.092916198 0.044852201
0.0413993 0.0942972 -0.0057773502
-0.058327898 0.116979 0.038360901
-0.0543257 0.121248 0.037219301
0.0107631 0.067170203 0.0541647
0.0117494 0.067185797 0.053861901
0.0127465 0.0672208 0.053539999
0.0136958 0.067246102 0.0531523
0.0145592 0.0672414 0.052652098
0.0153602 0.067249097 0.0520407
0.016133901 0.067243397 0.051402502
0.017008601 0.067259401 0.0509139
0.0178682 0.067253202 0.050402202
0.018737501 0.067272902 0.049897298
0.019540301 0.0672509 0.0492981
0.0203517 0.0672611 0.0487139
0.0211493 0.067277901 0.048108201
0.021845801 0.067262799 0.047358099
0.022490799 0.067240201 0.046522699
0.0232051 0.067226402 0.045792598
0.0239769 0.067224301 0.0451455
0.0248126 0.067236401 0.044606701
0.0257216 0.0672521 0.044164401
0.026662599 0.067270704 0.043759301
0.027553299 0.067284398 0.043303698
0.0283911 0.067293197 0.042755902
0.0292682 0.0673021 0.042263798
0.0301602 0.067315698 0.041795399
0.030997399 0.067320697 0.041255299
0.031859498 0.0673315 0.040733501
0.032660902 0.067330897 0.0401471
0.033523198 0.067341402 0.0396281
0.034362201 0.067346796 0.039087199
0.0351918 0.067350097 0.038529199
0.035953101 0.0673443 0.0378699
0.036646701 0.067330502 0.037115801
0.037311502 0.0673123 0.036294602
0.0379734 0.067294098 0.0355158
0.038627699 0.067271501 0.034684502
0.0392491 0.067247704 0.033830799
0.039798301 0.067217097 0.032883201
0.040174201 0.067158803 0.031667501
0.040583301 0.067089602 0.0305002
0.041089501 0.067031503 0.029446799
0.0416371 0.066984899 0.0284796
0.042291999 0.066950902 0.027638599
0.038090501 0.094129398 0.034130599
0.037494801 0.094147697 0.035050198
-0.053372301 0.122605 0.036890399
0.028969901 0.100814 0.0402993
0.027069099 0.094243698 0.044564899
-0.066051401 0.11246 0.041241899
0.012627 0.12184 0.034232602
0.0543584 0.067437097 0.025800699
0.055197299 0.067459397 0.025267201
0.055991001 0.067441002 0.024670999
0.0566945 0.067437403 0.0239376
0.057346899 0.067429103 0.023114299
0.057983 0.067408703 0.022273
0.0585628 0.067380697 0.0213416
0.0591195 0.067342997 0.0203999
0.026287301 0.094238199 0.045193601
0.0254813 0.094245203 0.045788199
0.042594802 0.0873487 -0.0068056998
0.024243901 0.099485204 0.044008002
0.022213301 0.103397 0.042817201
0.0382182 0.085591704 -0.0147556
0.022713101 0.118044 0.033019099
0.0311369 0.098211803 0.039916299
0.0346875 0.095537901 0.038028501
0.040256198 0.085757598 -0.0117696
0.027852399 0.115393 0.031659801
0.0091432603 0.112364 0.039750598
0.019944699 0.104671 0.043046799
0.026170099 0.115347 0.0327443
0.020842301 0.104696 0.042599302
-0.052116301 0.12407 0.0351298
-0.047261398 0.125357 0.028008901
0.0360361 0.100737 0.0329764
0.017991399 0.120614 0.033226199
-0.057129599 0.124118 0.040205799
0.0141724 0.094036803 0.050503802
-0.059376799 0.116855 0.038627401
0.0109305 0.068543799 0.0544088
0.0118954 0.068563901 0.0540604
0.0127964 0.068574399 0.053620402
0.0136873 0.068586402 0.053149499
0.0145324 0.068638198 0.0526166
0.0154246 0.068599097 0.0521564
0.016317099 0.0686116 0.0516854
0.0172066 0.068625003 0.051216401
0.018085901 0.068640999 0.050728198
0.018903101 0.068639003 0.050160401
0.019674201 0.068635903 0.0495084
0.0205204 0.068631597 0.048971198
0.021387899 0.068656899 0.0484685
0.0220783 0.068604603 0.047671702
0.0227469 0.068611898 0.046899199
0.023412799 0.068582296 0.046090499
0.0240933 0.0685753 0.045325
0.024852199 0.068592601 0.044679198
0.025680199 0.068578601 0.044096701
0.026540101 0.068601802 0.043605201
0.0274255 0.068612397 0.043123499
0.028240001 0.068615504 0.042545799
0.0291321 0.068630204 0.042078398
0.0300864 0.0686462 0.0416997
0.030999299 0.0686673 0.041280001
0.031879202 0.068678401 0.0407831
0.0327041 0.068680502 0.040212501
0.033503499 0.068683803 0.0396083
0.034269601 0.068679899 0.038964
0.0350895 0.068683602 0.038394898
0.035858098 0.068679802 0.037746198
0.036583699 0.068667799 0.037022099
0.037264101 0.068653099 0.0362559
0.037944499 0.068636604 0.035490699
0.038609099 0.068614803 0.034670301
0.039235901 0.068592802 0.0338195
0.0397534 0.068549499 0.032794099
0.040216699 0.068512201 0.031743899
0.040709902 0.068459302 0.0306869
0.041208599 0.068403304 0.029635699
0.041727599 0.068341598 0.028593101
0.042337898 0.068311803 0.0277209
0.042941298 0.068274803 0.026801299
0.038546398 0.095495701 -0.0089010904
0.0348249 0.110986 -0.0028353001
0.0101281 0.105858 -0.020234199
0.0547648 0.068691 0.024634
0.055579498 0.068696998 0.0240751
0.0563251 0.0686891 0.0234174
0.056979101 0.068693303 0.022604199
0.057617199 0.068677701 0.021769799
0.058226898 0.068674698 0.0208601
0.058779102 0.0686289 0.019915501
0.030839 0.099511899 0.039494801
0.0300963 0.099529497 0.0401727
0.029319501 0.099516302 0.040797099
0.0257555 0.099469498 0.0426751
0.025022 0.099498101 0.0433749
-0.056154899 0.118392 0.038048401
0.045759398 0.089017399 0.0101642
-0.051127099 0.116882 0.032970499
0.0234999 0.095550798 0.0464417
0.044490598 0.086103603 -0.00180248
-0.025842 0.091626003 -0.0326108
-0.063669898 0.112355 0.037620801
0.021724001 0.104691 0.042117301
0.0089750197 0.113705 0.0394792
-0.050105501 0.129693 0.0310292
-0.049483798 0.129682 0.0301574
-0.0477839 0.125387 0.029071599
-0.063138798 0.0620641 0.0242
0.0225321 0.104677 0.041531201
0.016910199 0.120624 0.033430401
0.038522702 0.108358 0.00315989
0.039411701 0.087093301 -0.0127933
0.0108601 0.117776 0.036939599
-0.060351498 0.116839 0.0389782
-0.063646898 0.11387 0.039443102
0.039627898 0.085706502 -0.0127726
0.0100468 0.069869503 0.0549195
0.0109957 0.069892101 0.054533601
0.0118973 0.069902301 0.054091901
0.0127846 0.069916897 0.053617399
0.0137184 0.0699424 0.0531931
0.0146499 0.069943301 0.052810799
0.0155988 0.069969699 0.0524229
0.016483899 0.069986098 0.051940899
0.0173223 0.069983602 0.051402502
0.018149 0.0699846 0.0508404
0.0189748 0.069986902 0.050266299
0.0198393 0.070011601 0.049762201
0.020767201 0.0700064 0.0493524
0.0216229 0.070037901 0.048827
0.022407001 0.0700249 0.048192501
0.0230994 0.070012502 0.047432099
0.0237226 0.069962703 0.046540901
0.0243671 0.069941796 0.045708202
0.0250153 0.069944799 0.044914201
0.025718501 0.069931298 0.0441746
0.0265464 0.069940597 0.043618999
0.0273636 0.069942698 0.0430425
0.0281616 0.069950499 0.042435501
0.029005 0.069950499 0.041901901
0.0299489 0.069977 0.041509699
0.030945901 0.070008099 0.041185699
0.031924099 0.070030697 0.0408624
0.032765999 0.070034496 0.040323202
0.033573601 0.070038103 0.039723001
0.0342867 0.070023298 0.0389954
0.035025399 0.070018202 0.0383083
0.035777699 0.070014 0.037637401
0.036502302 0.0700019 0.036913902
0.037195999 0.069986403 0.036159001
0.0378948 0.069973201 0.0354084
0.038573399 0.069956802 0.034642499
0.039204001 0.069935396 0.033797301
0.039784499 0.0699028 0.032867201
0.040290099 0.069864497 0.031835899
0.040799201 0.0698146 0.030792501
0.041328099 0.069753699 0.029756
0.041871998 0.069711998 0.028791999
0.0424296 0.069668397 0.027833501
0.042968899 0.069627702 0.0268653
0.043556601 0.069595903 0.0259839
-0.047235299 0.12392 0.028031699
0.025387 0.103408 0.040382601
0.0196457 0.116633 0.035615899
0.042457599 0.084538102 -0.0067973598
0.035312001 0.084070303 -0.017786101
-0.029540099 0.090460703 -0.027593199
-0.0591124 0.121234 0.040826499
-0.053454399 0.124093 0.0367404
-0.049643598 0.132456 0.028190499
-0.0035983101 0.101107 0.0440537
0.0239184 0.116674 0.033002902
0.037789501 0.0954381 0.033723399
0.023291601 0.104676 0.0408599
0.045432098 0.086188696 0.018168399
-0.0627767 0.112367 0.037156198
0.041501299 0.104244 0.010161
0.021462901 0.119376 0.0329783
-0.052091502 0.12972599 0.033444799
-0.050728898 0.129704 0.031896502
-0.048300501 0.12541001 0.0300666
-0.0495314 0.12548 0.031876002
0.045182299 0.091796003 0.014161
0.0141007 0.120583 0.034659199
-0.0644392 0.112372 0.038263202
0.036751602 0.111162 0.0031666099
-0.0618021 0.116863 0.040414698
-0.061133999 0.11687 0.039616499
-0.064558998 0.11407 0.041766599
0.0101515 0.071231 0.055077001
0.0110379 0.071244501 0.054604601
0.0119051 0.071188897 0.054076701
0.0128317 0.071271397 0.053697299
0.0138055 0.0712841 0.0533593
0.014817 0.071315899 0.053070799
0.0156656 0.071315199 0.0525386
0.0164758 0.071329601 0.0519403
0.0172645 0.071320802 0.051332999
0.018139999 0.071324497 0.050842602
0.019083099 0.071346901 0.050453901
0.020075399 0.0713524 0.050138202
0.021013601 0.071383603 0.049722701
0.0218587 0.0714183 0.0491823
0.0226382 0.071408398 0.0485432
0.023360699 0.071385801 0.047814101
0.0240483 0.071374796 0.047052201
0.0246484 0.071332097 0.046138201
0.0252483 0.071321398 0.045267899
0.0259161 0.071319699 0.044484101
0.026672799 0.071317703 0.043818101
0.0275195 0.071313597 0.043279801
0.0283147 0.071297303 0.042677298
0.029110299 0.071313903 0.042068299
0.029940801 0.071317598 0.0415086
0.030867601 0.071345299 0.0410867
0.031827901 0.0713659 0.040722098
0.032795198 0.071385399 0.040370699
0.0336335 0.071389399 0.0398251
0.034425899 0.071394898 0.039212599
0.035144299 0.071382001 0.038488101
0.035849702 0.071365297 0.0377445
0.036520801 0.071342401 0.036933001
0.03717 0.071329899 0.036137599
0.0378679 0.071317904 0.035386499
0.0385608 0.071301103 0.034632899
0.039195601 0.071280502 0.0337887
0.039800499 0.071258597 0.032924701
0.040355001 0.0712163 0.031923801
0.0409071 0.071183898 0.030971801
0.041469 0.071138397 0.0300167
0.042024799 0.0710795 0.0289899
0.0425358 0.0710418 0.028008901
0.043036599 0.070985898 0.0269587
0.043554202 0.0709351 0.0259153
0.023898499 0.104719 0.039990701
-0.055041201 0.129739 0.036213901
0.0247695 0.1047 0.039476801
0.0294623 0.103445 0.037491899
0.0287346 0.10342 0.038199302
0.016206 0.092722699 0.0499244
0.0234983 0.102092 0.042931501
0.044803001 0.094584703 0.0121616
0.044927899 0.094592303 0.0091632297
0.0404227 0.088587403 -0.0107894
0.0424628 0.094396099 -0.0028016199
0.0437182 0.094480902 0.000197915
-0.0629007 0.115475 0.040647998
-0.00469334 0.101051 0.044176102
-0.0057952302 0.10109 0.044488601
0.025746901 0.104744 0.039143302
-0.0148223 0.129108 0.012888
0.042847302 0.094469801 0.0251639
-0.055794999 0.129741 0.036881901
-0.049617 0.115589 0.0334474
-0.049206499 0.128269 0.030574299
0.040955 0.104188 0.0021863601
0.0230988 0.111339 0.037076
0.036878899 0.094172701 0.035905998
-0.047956299 0.069932103 0.0400053
0.0260945 0.098160401 0.043163799
0.0329891 0.092935003 0.040813901
-0.048002101 0.126873 0.0289133
-0.051366001 0.12970801 0.032749001
-0.048913602 0.125469 0.0310273
0.0150413 0.120568 0.034238499
0.029169001 0.114081 0.031801399
-0.058038302 0.122682 0.040630199
0.029314101 0.095565997 0.0425395
-0.0523232 0.13528 0.029620999
0.0093157198 0.072568901 0.055641901
0.0102149 0.072580203 0.055192001
0.0110403 0.072584704 0.0546235
0.0119312 0.072597802 0.054160301
0.0129485 0.072623901 0.053883601
0.0140119 0.072674997 0.053649198
0.0148576 0.0726711 0.053126302
0.0156666 0.072683103 0.052531101
0.016418301 0.072659902 0.051874101
0.017312501 0.072656602 0.051425301
0.018368799 0.072707199 0.0511848
0.0194047 0.072727904 0.050938901
0.020347301 0.072759502 0.050529402
0.021227 0.072778299 0.050039999
0.022002401 0.072767898 0.049399901
0.0227593 0.072765402 0.048730198
0.023522399 0.072761796 0.048069201
0.024236999 0.072742902 0.047331698
0.0248868 0.072743803 0.046538599
0.025461599 0.0727112 0.0456024
0.0260763 0.072698601 0.044735
0.026905401 0.072689503 0.044144399
0.027799901 0.0727164 0.043688301
0.0286828 0.072686002 0.0432253
0.0295237 0.072727203 0.042682
0.0302378 0.072704203 0.0419554
0.0310541 0.072714202 0.0413756
0.031891499 0.072713301 0.040830798
0.032779701 0.072728701 0.040355999
0.033670001 0.072742 0.039885901
0.034539498 0.072758801 0.0393885
0.035299901 0.072752297 0.038732901
0.036015201 0.072737001 0.038003001
0.036658101 0.072713599 0.037165701
0.037182901 0.072672702 0.036150999
0.037845701 0.072660699 0.035369899
0.038543999 0.072646096 0.034619
0.0391967 0.072624698 0.033787999
0.039816599 0.072601601 0.0329349
0.040433299 0.072580501 0.032079801
0.040976401 0.072537303 0.0310711
0.041549198 0.072494499 0.03012
0.042109199 0.072451502 0.0291612
0.042610399 0.072399102 0.028108099
0.0431148 0.072356798 0.0271232
0.043583602 0.0722927 0.025986699
0.044051498 0.072227404 0.0248494
0.044518799 0.072180502 0.0237826
0.0101664 0.120462 0.0359466
-0.0074758101 0.101243 0.044379599
-0.067061 0.061772801 0.020098301
0.043018501 0.100102 0.0051701101
0.042957399 0.085978597 -0.0057955398
-0.050000399 0.121197 0.032909401
-0.0286016 0.109083 -0.019496299
-0.0274751 0.109286 -0.019717
0.036002301 0.103374 0.0311349
-0.062221002 0.119852 0.0434664
0.039831199 0.099298403 0.027798001
0.045271698 0.090398699 0.0151606
0.043743301 0.094532602 0.022169201
-0.0462327 0.128102 0.0242709
0.0112135 0.116429 0.0374582
0.041701201 0.085878 -0.00880084
0.044000201 0.088869497 -0.00280666
0.041140001 0.104231 0.0031703601
0.0240569 0.111353 0.0367066
0.025731299 0.096861601 0.044400498
0.0266877 0.104744 0.038739201
-0.057380799 0.12973399 0.038106602
0.044441 0.093115002 0.00120191
-0.053626001 0.12549999 0.036505401
0.0159567 0.120613 0.033808399
0.030538701 0.114047 0.0302625
0.0298704 0.114081 0.031046599
0.045805201 0.089019999 0.0091677699
0.0454023 0.087582901 0.016165299
0.036646198 0.100736 0.0320541
0.043867201 0.091675498 -0.00180444
0.035544399 0.109985 0.0269213
0.018116601 0.118416 -0.011621
0.0093901996 0.073918201 0.0557875
0.0102664 0.073930398 0.055283502
0.0111129 0.073935598 0.0547693
0.0120599 0.073955096 0.054384701
0.013184 0.074007303 0.054230899
0.0141451 0.074025698 0.053873099
0.0149724 0.074028596 0.053309899
0.0157288 0.074019499 0.052662201
0.0166416 0.074031703 0.052209102
0.017679499 0.074046902 0.051976301
0.018740701 0.074096397 0.051747698
0.019690599 0.074124999 0.051357601
0.0205417 0.074122503 0.050829399
0.0213439 0.0741385 0.050220601
0.0220764 0.074114203 0.049509
0.022861101 0.0741302 0.048893601
0.0236414 0.074120604 0.048255298
0.0244049 0.074113101 0.047594201
0.0250862 0.074105501 0.046824299
0.025638999 0.074046098 0.0458389
0.0262357 0.074075103 0.044984099
0.027151201 0.074097604 0.044523198
0.028050199 0.074085802 0.044082101
0.0290027 0.074112803 0.0436952
0.029867301 0.074091598 0.043197699
0.030599801 0.074102901 0.0424942
0.0313861 0.074089698 0.041870099
0.032147799 0.074086703 0.041212499
0.032870799 0.074067302 0.040495701
0.033703402 0.074096903 0.039948899
0.034561101 0.074094802 0.039425399
0.035371602 0.074101403 0.038842101
0.0361319 0.074097 0.038179498
0.0367705 0.074074 0.037340902
0.037338302 0.074043497 0.036398601
0.037938599 0.07401 0.035483699
0.0385799 0.0739884 0.034644499
0.039208699 0.073977597 0.0338431
0.039830498 0.073956698 0.0329917
0.040444899 0.0739232 0.032084599
0.0410157 0.073904097 0.031202
0.041573599 0.073852301 0.030191099
0.042142302 0.073811702 0.029239301
0.042672001 0.073756799 0.028200399
0.043179501 0.073719703 0.027216701
0.043631401 0.073651902 0.026071999
0.044096299 0.073585398 0.024930799
0.044513099 0.073522396 0.0237705
0.044939399 0.073462799 0.0226146
0.0407626 0.105627 0.00616707
0.038419001 0.105512 0.0261645
0.040444799 0.098550297 0.0271661
-0.049203601 0.13105901 0.0288275
-0.0503264 0.13111199 0.030706299
0.035325602 0.109535 -0.0039039401
-0.052418299 0.131115 0.032985501
-0.053150099 0.13112999 0.033674899
0.0405945 0.102819 0.022171199
0.0401875 0.102783 0.0241636
0.0250182 0.11137 0.036341999
0.040243 0.097092301 -0.0058299098
0.0275361 0.10477 0.038219299
0.0329112 0.096871004 0.038967699
-0.0495972 0.118308 0.031694099
-0.053794999 0.115431 0.034376401
-0.029909 0.0904807 -0.0265953
0.025867101 0.111418 0.0358303
-0.054971699 0.132532 0.0345672
0.0272041 0.096852802 0.0430049
0.037126899 0.09285 0.0362758
0.044164401 0.093118697 0.000177172
0.0208911 0.120687 0.032152701
0.0275463 0.095549002 0.043501198
-0.044455498 0.121377 -0.0123561
0.045648798 0.086198501 0.0051838099
0.040038601 0.087141499 -0.0117889
0.0094231702 0.075272299 0.0558271
0.0102648 0.075277299 0.0552991
0.0111453 0.075289302 0.054816902
0.012216 0.075328201 0.054596901
0.0133103 0.075362898 0.054448798
0.0143121 0.075399101 0.054093499
0.0151412 0.0754034 0.0535569
0.0160506 0.075405799 0.053134099
0.0170529 0.075443998 0.052815702
0.0180116 0.075463399 0.0524537
0.0189467 0.075491898 0.052040402
0.0197898 0.075490601 0.051507499
0.0205837 0.075483203 0.050891899
0.0213851 0.0754916 0.050294001
0.022161201 0.075483501 0.049651802
0.022976801 0.075488597 0.049074199
0.023811299 0.075490601 0.048521299
0.0246103 0.075474001 0.0479027
0.025356499 0.075473003 0.047222398
0.025951801 0.075433999 0.046288401
0.026575699 0.075445399 0.0454823
0.027466301 0.075464502 0.0450048
0.0283128 0.075454198 0.044477198
0.0291938 0.075471602 0.043988999
0.030077299 0.075487301 0.043513302
0.0309112 0.075487301 0.042961899
0.031690098 0.075476602 0.042324901
0.032442302 0.075477399 0.041653901
0.033119898 0.075469099 0.040877301
0.0337836 0.075442404 0.0400679
0.0346025 0.075447798 0.039494101
0.035425 0.075452797 0.038926698
0.036162201 0.075447999 0.038249198
0.036836401 0.075426199 0.037436001
0.037460499 0.0754022 0.036581401
0.0380379 0.075373001 0.035647102
0.038634501 0.075353399 0.0347776
0.039222099 0.075320996 0.033853099
0.039853498 0.075299501 0.033003699
0.040472299 0.075277902 0.032151502
0.041034602 0.075246699 0.03121
0.041561302 0.075197197 0.030180199
0.042121701 0.075156704 0.0292241
0.042675 0.075116098 0.028262399
0.043238599 0.075076103 0.027306199
0.043715999 0.075011499 0.026173901
0.044135101 0.074946202 0.025012501
0.044544 0.074884497 0.023850599
0.044971 0.074821398 0.0226935
0.0454055 0.074757203 0.0215389
0.045781799 0.074690297 0.020285301
0.042536199 0.097250797 -0.00083062501
0.043643799 0.097316101 0.0031761001
-0.00269975 0.109146 -0.0216168
-0.00121407 0.102594 0.044076402
0.0186534 0.103359 0.044689801
0.0267956 0.111385 0.035403099
0.0276406 0.111416 0.034872498
0.0353489 0.095532201 0.0372114
0.040883299 0.10285 0.020176901
-0.050171901 0.132485 0.029177999
-0.0507215 0.13250101 0.0301542
0.0220735 0.113988 0.035607401
0.036635298 0.098256104 -0.0107953
0.041958701 0.095819198 0.0261617
0.043558698 0.095915101 0.0211557
-0.0472578 0.121113 0.0280085
0.0217235 0.120687 0.031584799
0.031128399 0.103423 0.036401801
0.045330301 0.087580897 0.0171699
0.020028301 0.102079 0.0449293
-0.050269 0.11691 0.032476999
0.042956099 0.100122 0.0141624
0.010276 0.076623 0.055285402
0.0111753 0.076642603 0.0548499
0.0122509 0.076679602 0.054628398
0.0134061 0.076727599 0.0545687
0.0143682 0.076749399 0.054227401
0.0153262 0.076770701 0.0538598
0.0163312 0.076799802 0.053541601
0.017240301 0.076811299 0.053112902
0.0181983 0.076837301 0.052735601
0.019034799 0.0768352 0.0521916
0.019800199 0.076832399 0.051532399
0.020602001 0.0768409 0.050928801
0.021431601 0.076842196 0.050367702
0.022261299 0.076846197 0.049812999
0.0231426 0.076860301 0.049319498
0.023997899 0.076854303 0.048830099
0.024828 0.076858804 0.048244301
0.0255432 0.076841801 0.047508899
0.026157901 0.076825298 0.046635602
0.026874799 0.076806203 0.0459093
0.027684201 0.076814502 0.045332901
0.028496601 0.0768217 0.0447581
0.029352199 0.076843701 0.044236299
0.0301995 0.0768447 0.043700799
0.0310665 0.076861799 0.043199301
0.0318624 0.076851599 0.0425881
0.032623701 0.076847501 0.041925699
0.033307899 0.076838396 0.0411622
0.033968698 0.076804899 0.040338699
0.0347021 0.076810397 0.039656401
0.0354665 0.076804802 0.0390018
0.036175299 0.076790199 0.0382584
0.0368491 0.0767795 0.0374896
0.037484098 0.076756999 0.036643401
0.038107101 0.076737098 0.035790101
0.038688298 0.076703899 0.034863301
0.0392901 0.076673403 0.0339466
0.039886098 0.076641597 0.033024602
0.040500101 0.076618999 0.0321646
0.041064601 0.076590002 0.0312229
0.041573599 0.0765545 0.030244701
0.042084701 0.076492898 0.0291356
0.042638902 0.076451696 0.028173501
0.043189298 0.076410398 0.027210901
0.043697599 0.076360501 0.026160499
0.0441778 0.076309003 0.025099
0.044615 0.076244399 0.0239446
0.0450661 0.076193698 0.022871099
0.0454669 0.076116502 0.0216249
0.045843001 0.0760483 0.0203743
0.046117201 0.075962298 0.0190037
0.043113001 0.097273499 0.00118522
0.043379199 0.097294502 0.00218055
0.042851601 0.097253799 0.000192155
0.042205099 0.097208902 -0.00180239
-0.0467235 0.12812801 0.0253508
0.019545 0.103378 0.0442321
0.037300501 0.103362 0.029450599
0.028480601 0.111435 0.034331799
0.041287899 0.091465898 -0.0087766498
0.0364682 0.111067 0.0021679499
-0.016019201 0.104518 -0.022748601
0.045281898 0.0932028 0.00617084
0.039336801 0.098445803 -0.0068208301
0.0410804 0.10284 0.019168099
0.041531801 0.092610002 0.0284783
0.0283827 0.10475 0.037685499
0.0090658199 0.123154 0.034375198
-0.052820701 0.121242 0.035880499
-0.0479877 0.121051 0.028756
0.022492999 0.120697 0.0309281
0.023086 0.119339 0.0317977
0.045297898 0.087577403 0.018167401
0.028069301 0.112767 0.033739801
0.035825901 0.0928903 0.037888501
-0.0494476 0.122586 0.0319364
0.0449595 0.0889486 0.000172046
-0.055541102 0.128344 0.037239101
-0.054278199 0.132533 0.0338047
0.044261999 0.094532497 0.00218274
0.0102029 0.077957898 0.0551886
0.011103 0.077976801 0.054758798
0.0121741 0.078010701 0.054517899
0.013384 0.078065999 0.054522499
0.0144021 0.078097299 0.054251999
0.0154243 0.078130297 0.053987999
0.0163345 0.078144901 0.053580198
0.017338799 0.078175701 0.0532571
0.0181919 0.078179903 0.052746698
0.0190515 0.078191698 0.052212901
0.019791299 0.078180201 0.051530302
0.0206498 0.078191698 0.051009201
0.0214935 0.078193203 0.050476398
0.0223647 0.0782061 0.049978402
0.023209101 0.078207403 0.049444601
0.024103099 0.078219697 0.048977699
0.024920899 0.078225903 0.048395298
0.0256558 0.078225397 0.0477034
0.026314599 0.078200899 0.046884298
0.027030701 0.078185201 0.046153799
0.027836701 0.0781921 0.0455692
0.0286115 0.078185998 0.044930499
0.029436899 0.078191802 0.044370901
0.030290199 0.078207001 0.0438447
0.031135799 0.078210197 0.043310001
0.0319454 0.078213803 0.0427262
0.032698601 0.078195803 0.042037901
0.033429101 0.078195103 0.041341402
0.0341204 0.078182697 0.040584099
0.034807101 0.078171097 0.039824702
0.035513099 0.078156598 0.039078601
0.036158599 0.0781359 0.038244501
0.036813401 0.078120098 0.037459999
0.037454799 0.0781001 0.036619399
0.038100202 0.078079 0.035785299
0.038757101 0.078055397 0.034957599
0.0393814 0.078034498 0.0341058
0.039937101 0.077992998 0.033105802
0.040529702 0.077972502 0.0322363
0.041097201 0.077942699 0.031296
0.041585099 0.077900402 0.030247601
0.042085201 0.077848002 0.0291974
0.042582799 0.0778099 0.028206499
0.043202501 0.077770099 0.027279399
0.043688599 0.077718198 0.026220599
0.044194501 0.077667996 0.025170101
0.044699199 0.0776181 0.0241159
0.045142502 0.077555299 0.0229667
0.045544401 0.077486597 0.021720899
0.045880701 0.0774123 0.0204549
0.046146601 0.077331901 0.0190905
0.037357401 0.084125102 -0.0157743
0.0456324 0.087599099 0.0131626
0.0464327 0.076993197 0.014129
0.040761601 0.105622 0.0111617
0.038440999 0.100665 0.029376101
0.039021298 0.100628 0.028494401
0.0366464 0.103365 0.030288501
0.0292794 0.111414 0.033732101
0.0291715 0.104768 0.0370747
0.0413201 0.104267 0.012164
0.029995101 0.111426 0.032999299
0.045780599 0.089019902 0.00717609
0.044123299 0.095929503 0.00318315
0.00457646 0.108164 0.0418882
0.039961699 0.098484397 -0.00581339
0.042098898 0.093007803 0.0271705
0.0204347 0.103384 0.043761998
0.039880302 0.092706703 0.031428501
0.0451851 0.086173102 0.021163501
0.0100844 0.123139 0.034069099
-0.0535677 0.121244 0.036551502
0.043725699 0.090292104 0.0241674
0.042883102 0.090235099 0.0261862
0.04335 0.090265296 0.025167299
0.030005399 0.104778 0.036523901
0.0378723 0.109729 0.0041658399
-0.061867099 0.112377 0.0367302
-0.050028902 0.122604 0.032839999
-0.0624131 0.11535 0.039493199
-0.0516419 0.126901 0.034087501
0.0100662 0.079287499 0.0550109
0.0110253 0.079310097 0.0546505
0.0120332 0.079335399 0.054334801
0.0131787 0.0793804 0.054232601
0.0142616 0.079423197 0.0540604
0.0152869 0.079460301 0.053811599
0.016253 0.079487897 0.053465098
0.017255999 0.079507001 0.053139899
0.018171901 0.079525098 0.052714299
0.019047599 0.0795376 0.052221902
0.019848101 0.079533502 0.051611502
0.0206734 0.079540104 0.051047899
0.0215152 0.0795452 0.050512701
0.0223647 0.079548799 0.049994402
0.023269501 0.079559699 0.0495474
0.0241683 0.079572499 0.049081199
0.024983 0.079578698 0.048494
0.025712401 0.079575397 0.047792401
0.026353501 0.079542503 0.0469281
0.027060401 0.079539098 0.046213899
0.0278273 0.079537503 0.045564901
0.028615501 0.079532802 0.044941999
0.0294578 0.079544 0.044410501
0.0302795 0.079547703 0.043839399
0.031127701 0.079552397 0.0433085
0.031953901 0.079556301 0.042745899
0.032730199 0.079550803 0.0421017
0.0335012 0.079546899 0.041450601
0.034210298 0.079544097 0.0407378
0.034865301 0.079522803 0.039915599
0.035513401 0.079500496 0.039080098
0.036118802 0.079477102 0.0382118
0.0367263 0.079448901 0.037304599
0.037431002 0.079442397 0.0366005
0.0381363 0.079430602 0.035854898
0.0388132 0.079416603 0.035089102
0.0394095 0.079387903 0.034172099
0.0399868 0.079358503 0.033240899
0.040576499 0.079326198 0.032317601
0.041128799 0.079297103 0.031368699
0.041633699 0.079255097 0.0303335
0.042117 0.079207398 0.0292753
0.0425933 0.079156302 0.028208099
0.043180902 0.079115897 0.0272636
0.043732401 0.079079397 0.0263023
0.044199899 0.079017699 0.0251667
0.044709999 0.078967698 0.024116
0.045159601 0.0789195 0.023039799
0.045556299 0.078849003 0.021795399
0.0458875 0.078780502 0.020529199
0.046119198 0.078687601 0.019077299
