ply
format ascii 1.0
comment PCL generated
element vertex 169
property float x
property float y
property float z
element camera 1
property float view_px
property float view_py
property float view_pz
property float x_axisx
property float x_axisy
property float x_axisz
property float y_axisx
property float y_axisy
property float y_axisz
property float z_axisx
property float z_axisy
property float z_axisz
property float focal
property float scalex
property float scaley
property float centerx
property float centery
property int viewportx
property int viewporty
property float k1
property float k2
end_header
-0.12408148 0.13489495 0.33902547
-0.12791011 0.14061475 0.33961961
-0.12345792 0.11588605 0.35347134
-0.11943186 0.11757941 0.3560693
-0.12861277 0.13129316 0.34978619
-0.11958767 0.12341961 0.3526828
-0.13093069 0.14084993 0.34311631
-0.049200572 0.017197637 0.37504953
-0.039536357 0.019898904 0.37401551
-0.047227968 0.028653471 0.37378407
-0.0318994 0.029916974 0.37322155
-0.019486494 0.038936779 0.37437093
-0.084272109 0.056178045 0.37893397
-0.06957937 0.057640176 0.37799272
-0.04995878 0.050968446 0.36963907
-0.0300694 0.050096419 0.36630967
-0.017958635 0.051745895 0.36945361
-0.084974706 0.06911546 0.37849721
-0.068680428 0.069696799 0.375884
-0.05057909 0.070441276 0.36329696
-0.029979197 0.070072301 0.36445394
-0.016582046 0.070777208 0.36893389
-0.081258312 0.081002325 0.37963933
-0.067315653 0.085303031 0.37807339
-0.049155448 0.088786922 0.37377355
-0.030250028 0.090379573 0.37215582
-0.014847461 0.090316914 0.3749758
-0.12645128 0.11341368 0.3698698
-0.11713801 0.11492383 0.37104341
-0.044221867 0.10133964 0.37938905
-0.031000327 0.10178269 0.37941879
-0.017746011 0.10112933 0.37923527
-0.13005017 0.12727986 0.36889368
-0.1182529 0.12357034 0.36921486
-0.084559225 0.15489854 0.37735063
-0.076014809 0.15480721 0.37548751
-0.08427953 0.16346316 0.37582693
-0.078433663 0.16158964 0.37222549
-0.069921747 0.011512875 0.3936244
-0.05447875 0.015216822 0.38819596
-0.10196279 0.038649485 0.3972367
-0.088739663 0.036181256 0.39472675
-0.068892583 0.030657919 0.3925285
-0.050892767 0.028520737 0.38750571
-0.030972324 0.02837415 0.38899508
-0.10762591 0.050932717 0.39211586
-0.09146364 0.04866524 0.38353679
-0.069460094 0.048651163 0.38360092
-0.055030834 0.044812955 0.38436657
-0.12339301 0.077395536 0.39791813
-0.10981045 0.069965594 0.39106017
-0.094547912 0.07080356 0.38191286
-0.12514468 0.090399824 0.3959575
-0.10978668 0.08990448 0.39150906
-0.090161651 0.090780683 0.38714465
-0.072057709 0.094038859 0.38427851
-0.056749474 0.098158322 0.38128105
-0.0092375437 0.098495752 0.38104844
-0.12752736 0.11150352 0.39050397
-0.11155657 0.11075728 0.39281479
-0.089861475 0.10337976 0.39695844
-0.068204485 0.10431454 0.39346674
-0.050057143 0.11076896 0.38873532
-0.029648755 0.11230209 0.38600874
-0.013626128 0.11095663 0.38932657
-0.12615664 0.12314469 0.38591707
-0.10710222 0.12911117 0.39326748
-0.09054447 0.13274306 0.39256772
-0.079250045 0.1389067 0.39182672
-0.043108188 0.12123898 0.39728758
-0.030850807 0.12166484 0.39690447
-0.018220156 0.1203088 0.39872843
-0.10272802 0.14439386 0.39354786
-0.090571404 0.14907697 0.38797906
-0.076445438 0.14662839 0.38546553
-0.089428753 0.16271247 0.38375354
-0.080662742 0.0087544993 0.40452969
-0.072035611 0.010365226 0.41033995
-0.050149266 0.01616572 0.40844324
-0.10404716 0.037414528 0.41117081
-0.090333372 0.032128546 0.4105444
-0.071889229 0.027859205 0.41073161
-0.041307941 0.023376901 0.40732566
-0.030874956 0.028623955 0.40997612
-0.12055355 0.058077842 0.41403654
-0.11477276 0.048542652 0.40966696
-0.12660147 0.071061008 0.41128626
-0.11886456 0.065064229 0.40264621
-0.1402491 0.099300012 0.41865352
-0.13431123 0.089828506 0.40971181
-0.0893436 0.099960744 0.4198398
-0.14081939 0.10347297 0.41615626
-0.13039847 0.11179301 0.40949342
-0.10702635 0.1158836 0.40990749
-0.09144076 0.1058014 0.40934154
-0.070090339 0.10819587 0.40997675
-0.055991571 0.11775276 0.40942031
-0.010599799 0.11817352 0.40974358
-0.10867382 0.12662669 0.40848082
-0.095106669 0.12939762 0.40334851
-0.046067327 0.12281912 0.40997475
-0.029986318 0.12436033 0.41000566
-0.016792195 0.12143175 0.41039661
-0.10204897 0.14187497 0.40131396
-0.098844476 0.14238043 0.40103409
-0.070393436 0.011368277 0.43074533
-0.051098268 0.016084928 0.4317019
-0.10265625 0.038549576 0.42378291
-0.089424804 0.035791535 0.42801046
-0.069692887 0.031188361 0.43107018
-0.05019125 0.031839415 0.43626505
-0.030774381 0.029084122 0.42984757
-0.12017959 0.059072021 0.42070767
-0.10987261 0.050000742 0.42991972
-0.091672294 0.043005552 0.43751284
-0.07293608 0.042772256 0.43792394
-0.050969757 0.045929447 0.43848342
-0.12831391 0.073015481 0.42921102
-0.11166957 0.067931399 0.43390089
-0.09447071 0.077961467 0.43882206
-0.14043945 0.099894784 0.42238146
-0.13551201 0.090293765 0.42988881
-0.10331773 0.094189852 0.4384636
-0.09053231 0.091077469 0.43301982
-0.072266571 0.092610776 0.43512413
-0.058576044 0.098737895 0.43928257
-0.14070989 0.10278945 0.42233786
-0.13023981 0.11065141 0.42987597
-0.10952436 0.11185908 0.43122697
-0.093884416 0.10330462 0.42519218
-0.067619286 0.10514215 0.42679921
-0.051322885 0.11272136 0.43240073
-0.030076116 0.11384949 0.43589583
-0.013129903 0.11297988 0.43174353
-0.11254226 0.12064356 0.42357925
-0.044591356 0.12192702 0.42425305
-0.030320864 0.12262422 0.42561796
-0.017538132 0.1211004 0.4231419
-0.067963779 0.013594436 0.44417825
-0.052128207 0.017242227 0.44355378
-0.064788178 0.024352331 0.44237292
-0.047615461 0.027147783 0.44604763
-0.031930797 0.030225916 0.45003331
-0.019478723 0.039109662 0.4470717
-0.10198329 0.05618782 0.44106182
-0.089626022 0.052446377 0.44306862
-0.069177017 0.051517062 0.44222578
-0.048445556 0.051867969 0.44555521
-0.030556753 0.050108403 0.45305401
-0.017874159 0.05188695 0.45303854
-0.12647085 0.074649893 0.44462469
-0.11101897 0.073527172 0.44553289
-0.089364566 0.068859927 0.44301081
-0.069875769 0.070043184 0.44331592
-0.051305659 0.0697015 0.4528904
-0.029884042 0.070196025 0.45690599
-0.016427355 0.070613697 0.45428482
-0.12794402 0.089784764 0.44748986
-0.1105123 0.089602143 0.44813991
-0.084330842 0.082522653 0.44039211
-0.065731294 0.085208423 0.44196159
-0.049354456 0.089504711 0.44663137
-0.03023378 0.090060584 0.45125839
-0.014491103 0.090776615 0.44834277
-0.1253933 0.10471622 0.44356617
-0.11645934 0.10431966 0.44346786
-0.046096679 0.1034545 0.44145757
-0.030073134 0.10358284 0.4424541
-0.014775225 0.10256344 0.44238266
0 0 0 1 0 0 0 1 0 0 0 1 0 0 0 0 0 169 1 0 0
