# .PCD v0.7 - Point Cloud Data file format
VERSION 0.7
FIELDS x y z
SIZE 4 4 4
TYPE F F F
COUNT 1 1 1
WIDTH 1500
HEIGHT 1
VIEWPOINT 0 0 0 1 0 0 0
POINTS 1500
DATA ascii
3.7070005 -1.5483856 -0.24953532
3.7104542 -1.3790393 -0.22483331
3.7150109 -1.3442266 -0.21848917
3.7112226 -1.2894189 -0.21210939
3.720629 -1.156852 -0.19056618
3.7260683 -1.082113 -0.1783756
3.7363493 -1.0286613 -0.1675536
3.7458692 -0.96886444 -0.15609932
3.7525117 -0.91874576 -0.1469388
3.7714972 -0.71930337 -0.11293662
3.7766151 -0.69854856 -0.10836405
3.7909367 -0.60844922 -0.091112554
3.8002245 -0.55231404 -0.080244064
3.8134665 -0.45495367 -0.062337518
3.8644221 -0.27793121 -0.020932734
3.8861439 -0.23269725 -0.0074887276
3.9027584 -0.18863511 0.0041112304
3.924083 -0.13650084 0.018384635
3.9324656 -0.10875821 0.025004148
3.9438765 -0.032227278 0.039409578
3.9486475 0.042740941 0.051411986
3.9514859 0.10263872 0.060681343
3.9549851 0.14230692 0.06735307
3.9670203 0.21316683 0.081174731
3.9988322 0.31393313 0.10566735
4.0014176 0.39502621 0.11780268
4.001173 0.42492259 0.12188238
4.0019865 0.51011229 0.13400465
4.0030918 0.53284776 0.13753229
4.0037112 0.59026396 0.14572579
3.9943447 0.67126381 0.15391439
3.9878583 0.717749 0.15824813
3.9849579 1.0007507 0.19667441
4.0000901 1.1286929 0.21945864
4.0035686 1.1680496 0.22608024
4.0069222 1.2134104 0.23349613
3.9979088 1.2677708 0.23809391
3.9522576 1.355381 0.23525971
3.9592297 1.8471897 0.30599183
4.0021863 1.9684395 0.33700293
4.012126 2.0086346 0.34586769
4.0412102 2.1130271 0.36996716
4.0382819 2.1684799 0.37671989
4.0510664 2.4021437 0.41344303
4.0523915 2.4155734 0.41574794
4.0520186 2.4391332 0.41890365
4.0359674 2.5563798 0.42993599
4.0426092 2.7665591 0.46136934
4.0697308 2.8600852 0.48331064
4.0853729 2.9182432 0.49655205
4.0789509 2.9769366 0.50260574
4.0753474 3.0016952 0.50486499
4.0724645 3.0141945 0.50565547
4.0446248 3.033699 0.49920636
4.0261407 3.0443387 0.4946031
3.9121914 3.1126702 0.46660668
3.8669686 3.1525757 0.45727509
3.8217502 3.1924834 0.4479453
3.7629721 3.2330003 0.43423718
3.6967754 3.2346082 0.41267318
3.6667397 3.2345929 0.40278512
3.6486614 3.2354052 0.3969478
3.6276653 3.2349844 0.38997859
3.4177632 3.2435827 0.3220883
3.3353934 3.2417152 0.29471725
3.2392917 3.2556713 0.26502854
3.1336179 3.2675004 0.23189336
2.9645431 3.2878919 0.17908186
2.903372 3.3116245 0.16225058
2.6177585 3.3192515 0.06930548
2.583204 3.3194396 0.057958424
2.3598263 3.3820498 -0.0068513155
2.2993896 3.3899405 -0.025645316
2.2422359 3.391144 -0.044289351
1.9085829 3.4695997 -0.14319003
1.797473 3.46913 -0.17982584
1.7497652 3.4601002 -0.19678497
1.5444582 3.4120836 -0.2710411
1.4728334 3.4013968 -0.2961027
1.4131646 3.3915365 -0.31711411
1.2780607 3.388607 -0.36198968
1.1675601 3.3733954 -0.40047643
1.1320179 3.3712149 -0.41247818
0.88571686 3.4068437 -0.48858744
0.59558076 3.6998754 -0.54330581
0.51235735 3.7542839 -0.56312668
0.33436453 3.7693608 -0.61961299
0.25499278 3.7996261 -0.64152575
0.051869005 3.8425333 -0.70241088
-0.10660806 3.8952913 -0.74723029
-0.22321153 3.9546137 -0.77735406
-0.41726184 4.0653567 -0.82581311
-0.46603012 4.0818777 -0.83956569
-0.49077064 4.0902081 -0.84654957
-0.53595614 4.1019082 -0.85979372
-0.67872173 4.140739 -0.90137988
-0.73056966 4.1599584 -0.91577059
-1.0545852 4.2799516 -1.0057191
-1.0818214 4.2994285 -1.0119733
-1.1097512 4.3203039 -1.0182612
-1.1376822 4.3411784 -1.0245495
-1.1828783 4.3432097 -1.0391426
-1.2816212 4.3337412 -1.0729604
-1.4481819 4.3651953 -1.1234049
-1.5166864 4.3508272 -1.1479518
-1.5595453 4.3460283 -1.162726
-1.7024195 4.3376322 -1.2109199
-1.8192072 4.329299 -1.2505188
-1.9998667 4.3387113 -1.3086711
-2.117501 4.3497109 -1.3458585
-2.3757999 4.4204307 -1.4210336
-2.6408195 4.4383078 -1.505774
-2.8029602 4.4374027 -1.5592668
-2.8986447 4.427114 -1.5921919
-3.0728881 4.427434 -1.6494977
-3.093884 4.4270129 -1.6564667
-3.1144736 4.4167633 -1.66467
-3.1816707 4.3862576 -1.6910321
-3.3042171 4.3568711 -1.7354561
-3.384171 4.3293915 -1.7655959
-3.5207121 4.290278 -1.8159797
-3.5536251 4.2871222 -1.8272518
-3.7132549 4.2972789 -1.8783787
-3.7401414 4.2938528 -1.8877051
-3.8310494 4.2882118 -1.9184113
-3.8539944 4.2869658 -1.9261365
-3.9111471 4.2881699 -1.9447803
-3.9527373 4.2774973 -1.9599543
-4.1734848 4.2356367 -2.0384359
-4.2035246 4.23562 -2.0483255
-4.2689052 4.2175736 -2.072356
-4.5672431 4.1682758 -2.1774106
-4.675838 4.1788702 -2.211679
-4.8062406 4.2086997 -2.2504487
-4.9276085 4.238121 -2.2863014
-4.9886346 4.2598014 -2.3033707
-5.0406222 4.2810745 -2.3175216
-5.184279 4.2695298 -2.366411
-5.2143178 4.2695127 -2.3763003
-5.2443528 4.2694979 -2.386188
-5.2834272 4.2698894 -2.3989944
-5.3151655 4.2391539 -2.4137177
-5.3185673 4.1777163 -2.4233868
-12.381991 -3.5873773 1.0617375
-12.342551 -3.5876563 1.0735899
-12.279326 -3.5860519 1.0928979
-12.221517 -3.5871415 1.1101685
-12.12427 -3.5885119 1.13929
-12.05186 -3.587312 1.1613075
-12.009713 -3.5862436 1.1741782
-11.843471 -3.5847962 1.2245303
-11.807087 -3.5849376 1.2354816
-11.767648 -3.5852163 1.2473338
-11.737387 -3.5850866 1.2564793
-11.686879 -3.587322 1.2713757
-11.663921 -3.5883381 1.2781467
-11.648616 -3.5890157 1.2826608
-11.636373 -3.5895574 1.2862718
-11.615298 -3.5890234 1.2927074
-11.582331 -3.5875466 1.3028713
-11.498034 -3.5854082 1.3286144
-11.476961 -3.5848742 1.3350494
-11.41915 -3.5859637 1.3523203
-11.391601 -3.587183 1.3604456
-11.349452 -3.5861149 1.373317
-11.319193 -3.5859852 1.3824619
-11.300827 -3.586798 1.3878787
-11.258677 -3.5857277 1.4007509
-11.246786 -3.5847871 1.404478
-11.195452 -3.5841234 1.4200587
-11.181677 -3.584733 1.4241215
-11.167902 -3.5853426 1.4281843
-11.116572 -3.584681 1.4437633
-11.074421 -3.5836108 1.4566358
-11.046872 -3.58483 1.4647609
-10.974464 -3.583632 1.4867772
-10.920424 -3.5816212 1.5033765
-10.894754 -3.5812883 1.5111675
-10.838832 -3.5808299 1.5281013
-10.817756 -3.5802937 1.5345379
-10.696725 -3.5797811 1.5711149
-10.669704 -3.5787756 1.5794146
-10.6335 -3.5781765 1.5904229
-10.587935 -3.5787244 1.6040819
-10.490118 -3.5639813 1.6357937
-10.288768 -3.5758214 1.6947396
-10.261218 -3.5770409 1.7028649
-10.230962 -3.5769131 1.7120087
-10.137209 -3.5150456 1.7495666
-10.142411 -3.5001454 1.7502338
-10.180717 -3.4167912 1.7511903
-10.222489 -3.272649 1.7602239
-10.237378 -3.2230911 1.7631707
-10.255122 -3.1039686 1.7756959
-10.265183 -2.9939899 1.789166
-10.288696 -2.9357376 1.7908168
-10.369183 -2.8510036 1.7792597
-10.429588 -2.7661819 1.7737718
-10.448768 -2.7457733 1.7710505
-10.652857 -2.5328324 1.7414572
-10.706607 -2.4297221 1.740721
-10.751192 -2.3720038 1.7359368
-10.801011 -2.2969379 1.7321775
-10.849772 -2.2263215 1.7280693
-10.902871 -2.1178625 1.7283323
-10.98728 -2.0050807 1.7198013
-11.060218 -1.904055 1.7129655
-11.120591 -1.7517526 1.7176139
-11.160982 -1.6619471 1.7189099
-11.193881 -1.5983893 1.7185262
-11.383746 -1.3758109 1.694669
-11.395628 -1.3542585 1.6943201
-11.42812 -1.3004987 1.692589
-11.466833 -1.2073464 1.694893
-11.494124 -1.1684865 1.6924942
-11.543697 -1.0782744 1.691082
-11.557014 -1.044925 1.6920705
-11.608132 -0.92799306 1.6942022
-11.61489 -0.90886796 1.6950343
-11.658805 -0.80081582 1.6980057
-11.742021 -0.76241636 1.6786723
-11.949925 -0.63634968 1.6348915
-12.080523 -0.58167052 1.603712
-12.132996 -0.56541312 1.590327
-12.328684 -0.43573213 1.5507728
-12.58094 0.16319275 1.5645771
-12.632819 0.24225783 1.5607967
-12.848956 0.27920413 1.5011593
-13.272629 0.43486524 1.3967491
-13.328554 0.43440461 1.3798141
-13.370498 0.42843747 1.3662695
-13.482617 0.36738276 1.3232945
-13.532732 0.33732557 1.3036705
-13.878599 0.09933424 1.1636503
-14.377119 0.16002345 1.0224156
-14.533555 0.21682048 0.98376155
-14.572588 0.20730162 0.97056162
-14.967355 0.10985804 0.83688605
-15.033082 0.10200763 0.81588614
-15.044774 0.096166134 0.81148344
-15.118937 -0.19590569 0.74528706
-15.133401 -0.26812625 0.73008728
-15.129604 -0.42623746 0.70750487
-15.140977 -0.55189645 0.68521786
-15.139757 -0.58128953 0.68117476
-15.153703 -0.778229 0.64741492
-15.155057 -0.87890244 0.63189876
-15.151805 -0.95728481 0.62111688
-15.137177 -1.1100055 0.60261005
-15.141644 -1.2022284 0.58742326
-15.140693 -1.2917548 0.57427502
-15.14164 -1.4022262 0.55741131
-15.142315 -1.4525622 0.54965389
-15.136843 -1.5073274 0.54308563
-15.135677 -1.6792593 0.51763582
-15.136214 -1.7995262 0.49942571
-15.123575 -1.8832135 0.49067867
-15.121747 -1.9273033 0.48461354
-15.122832 -1.9678435 0.47820252
-15.129032 -2.1059525 0.45560718
-15.122283 -2.2475703 0.43639034
-15.130394 -2.329119 0.42170644
-15.134308 -2.3785777 0.413104
-15.134581 -2.4387133 0.40399736
-15.13864 -2.5407341 0.38746297
-15.137828 -2.5603294 0.38476741
-15.140263 -2.7015409 0.36284196
-15.141616 -2.8022146 0.34732598
-15.139796 -2.8687973 0.33788288
-15.140272 -2.9240336 0.32945019
-15.139228 -2.9860187 0.32046318
-15.139967 -3.0333848 0.31313217
-15.150681 -3.1167247 0.29739463
-15.149055 -3.1559157 0.29200369
-15.147835 -3.1853089 0.28796059
-15.148108 -3.2454443 0.27885395
-15.146888 -3.274838 0.27481079
-15.146075 -3.2944334 0.27211517
-15.144855 -3.3238268 0.26807207
-15.140925 -3.3518708 0.2650488
-15.135641 -3.4792414 0.2475282
-15.140515 -3.5616665 0.23368901
-15.118629 -3.5807281 0.23742902
-15.050813 -3.5793271 0.25809097
-14.988765 -3.5791371 0.27683169
-14.976521 -3.579679 0.28044295
-14.955181 -3.5802569 0.28679168
-14.849013 -3.58092 0.31870991
-14.797684 -3.5802581 0.33428907
-14.764716 -3.5787814 0.34445292
-14.633441 -3.5831225 0.38339102
-14.491337 -3.5820758 0.4264034
-14.43082 -3.5818183 0.44469267
-14.324387 -3.5835934 0.476524
-14.303312 -3.5830593 0.48295969
-14.261162 -3.581989 0.49583191
-14.233612 -3.5832086 0.50395727
-14.175806 -3.5843 0.52122641
-14.154729 -3.5837638 0.52766323
-14.119881 -3.5838394 0.53816134
-14.106106 -3.5844491 0.54222405
-14.060544 -3.5849988 0.55588186
-14.027223 -3.5850043 0.56593001
-13.996966 -3.584877 0.57507372
-13.96671 -3.5847492 0.58421755
-13.945632 -3.584213 0.59065461
-13.924558 -3.583679 0.59709024
-13.894302 -3.5835514 0.60623372
-13.857569 -3.5851772 0.61706781
-13.769502 -3.5861392 0.64348233
-13.727352 -3.5850687 0.65635437
-13.701058 -3.5852547 0.6642561
-13.687911 -3.5853477 0.66820705
-13.630102 -3.5864372 0.68547738
-13.60993 -3.5863521 0.6915735
-13.586071 -3.5869193 0.69868374
-13.542039 -3.5874012 0.71189052
-13.453972 -3.5883632 0.73830509
-13.290791 -3.5867803 0.78775442
-13.255116 -3.5839565 0.7989369
-13.222149 -3.5824797 0.80910051
-13.152449 -3.5826287 0.83009809
-13.119132 -3.5826366 0.84014446
-13.091934 -3.5823736 0.84838617
-13.070858 -3.5818374 0.8548227
-13.03601 -3.581913 0.8653208
-13.022235 -3.5825226 0.86938345
-12.980083 -3.5814524 0.88225597
-12.959011 -3.5809183 0.88869107
-12.919567 -3.5811951 0.90054494
-12.868237 -3.5805333 0.91612434
-12.81961 -3.5812163 0.93068659
-12.74073 -3.581774 0.95439112
-12.62888 -3.5808527 0.98826092
-12.595911 -3.5793762 0.99842507
-12.515973 -3.5843832 1.0217811
-12.470058 -3.5864155 1.035323
-4.6612511 -3.5291872 2.1589744
-4.6754689 -3.432023 2.1644871
-4.7487097 -3.2019989 2.1639223
-4.7535439 -3.1593103 2.1668303
-4.7676935 -3.114305 2.1667817
-4.791255 -3.0354133 2.167124
-4.8079281 -2.9874907 2.1665199
-4.8408556 -2.9401236 2.160265
-4.9095173 -2.8046522 2.1511512
-4.922061 -2.7887774 2.1485362
-4.950223 -2.7482049 2.143193
-5.0038433 -2.6643319 2.1337287
-5.1151686 -2.3728571 2.1266432
-5.1190805 -2.3474083 2.1280222
-5.1284981 -2.334372 2.1261787
-5.1503992 -2.3044853 2.1218452
-5.1852999 -2.2460103 2.1161008
-5.20469 -2.2089334 2.1134007
-5.2630835 -2.1584334 2.0987213
-5.3019371 -2.1580765 2.0853944
-5.8809919 -1.8177823 1.9226435
-5.8891077 -1.7939177 1.9224069
-5.8960361 -1.7705255 1.9225284
-5.927598 -1.6667261 1.9227855
-5.9330788 -1.6511471 1.9225683
-6.0050869 -1.4859443 1.9154868
-6.0151367 -1.437205 1.9172485
-6.0269041 -1.3665102 1.9207702
-6.0166426 -1.1264282 1.950006
-6.0119228 -1.1068268 1.9537283
-6.0102634 -1.0909994 1.9559937
-6.010726 -1.0711432 1.9579608
-6.0143328 -1.0332096 1.9607816
-6.031744 -0.9959414 1.9587828
-6.0635786 -0.96547472 1.9510943
-6.1076422 -0.93222624 1.939497
-6.1800356 -0.87437165 1.9207892
-6.2681718 -0.83149588 1.8950624
-6.3191791 -0.8241055 1.8783078
-6.4062605 -0.81475317 1.8493545
-6.6371589 -0.7065894 1.7815099
-7.2265539 -0.30439723 1.6218297
-7.2358913 -0.16308224 1.6337485
-7.2276969 -0.093644023 1.6440022
-7.2224593 -0.023569942 1.6533067
-7.2179103 0.036289573 1.6612809
-7.2125745 0.26172507 1.6872541
-7.2306061 0.44422507 1.700592
-7.2322855 0.58870232 1.7154837
-7.2480168 0.71003091 1.7230632
-7.2833519 0.82148325 1.7228419
-7.2975268 0.84934461 1.7209489
-7.3273897 0.86333883 1.7121749
-7.4273362 0.91146815 1.6829481
-7.4666791 0.92667258 1.6710427
-7.5299997 0.94875181 1.6516253
-7.5767035 0.95822155 1.6365738
-7.6359515 0.97397435 1.61788
-7.7046332 0.99042213 1.5960155
-7.7853885 0.99018705 1.5682117
-7.9149275 1.0203308 1.5268795
-7.9720173 1.0312363 1.5084091
-7.9884896 1.0307783 1.5026939
-8.1099482 1.0403243 1.461936
-8.2150974 1.0552777 1.4273672
-8.3385696 1.0791973 1.3874556
-8.3942204 1.0889941 1.3693614
-8.6559124 1.2284681 1.2942767
-8.8726749 1.4210321 1.2403316
-8.9420862 1.4412152 1.2186161
-9.050025 1.4518565 1.1826261
-9.2815628 1.5076035 1.1089492
-9.3087473 1.5184797 1.1007627
-9.3695316 1.5482358 1.0830398
-9.4469509 1.5824825 1.0600755
-9.6449575 1.6465467 0.9988234
-9.6659107 1.6462499 0.99158406
-9.7645712 1.6466669 0.95769089
-9.8486958 1.6553835 0.92968655
-9.9785652 1.695424 0.88930041
-10.017419 1.6957806 0.87597346
-10.226084 1.6761965 0.80209881
-10.243989 1.6768485 0.79600954
-10.282846 1.6772038 0.78268111
-10.490409 1.6664063 0.7101264
-10.673068 1.714022 0.65239251
-10.868645 1.7553989 0.58954692
-10.928779 1.7653574 0.56992817
-10.967632 1.7657138 0.55660135
-10.988585 1.7654172 0.5493623
-11.016895 1.7593874 0.5389781
-11.136014 1.7446617 0.49642617
-11.32201 1.7577955 0.43385249
-11.362225 1.7527288 0.41947681
-11.47279 1.7541088 0.38159168
-11.757377 1.6004628 0.26724654
-11.891613 1.5907 0.2200259
-11.984038 1.5799452 0.18708134
-12.013944 1.5799745 0.17679739
-12.357586 1.5688411 0.057397127
-12.344072 1.4896041 0.053561449
-12.292678 1.3203691 0.053120255
-12.260168 1.24115 0.055821061
-12.162252 1.1189445 0.076417923
-12.016601 0.92226088 0.10546088
-11.915839 0.84938467 0.1323185
-11.848497 0.7985574 0.15004098
-11.836176 0.78928006 0.1532861
-11.782584 0.74884164 0.16739106
-11.623563 0.5869807 0.20476145
-11.454824 0.35503173 0.23796993
-11.400985 0.25155818 0.24541098
-11.288772 0.0091341734 0.25805396
-11.255936 -0.079983115 0.25980711
-11.228391 -0.20386004 0.25601852
-11.185169 -0.29441345 0.26119035
-11.13104 -0.44468445 0.26372045
-11.040322 -0.57757401 0.28069723
-10.990995 -0.71778321 0.28265256
-10.95609 -0.77625662 0.28839868
-10.910603 -0.88454866 0.29245067
-10.881463 -0.95481658 0.2949506
-10.855043 -1.0359313 0.29535347
-10.791579 -1.151409 0.30481988
-10.71112 -1.3247095 0.3139413
-10.629387 -1.4941703 0.32391173
-10.589628 -1.5773579 0.32868117
-10.558423 -1.6169827 0.33517259
-10.526887 -1.6665049 0.34071815
-10.434033 -1.855616 0.35241008
-10.412831 -2.0583551 0.33799565
-10.289094 -2.2771919 0.35712832
-10.248507 -2.6776714 0.32820952
-10.157755 -2.9136622 0.3341592
-10.150686 -2.9414618 0.33361417
-10.134847 -2.9727569 0.33571202
-10.100924 -3.0015359 0.34429961
-9.9021912 -3.2319303 0.38799208
-9.8546028 -3.4126811 0.38500851
-9.7323866 -3.491991 0.41855735
-9.5948 -3.5796299 0.45650154
-9.5439463 -3.5793638 0.47402298
-9.5140448 -3.5793948 0.48430538
-9.4961405 -3.5800467 0.49039441
-9.4841394 -3.5794239 0.49458927
-9.4302425 -3.5782108 0.51325899
-9.2986374 -3.5777116 0.55858272
-9.244113 -3.5786376 0.57723922
-9.2209263 -3.578424 0.58523804
-9.19102 -3.5784531 0.59552222
-9.1731148 -3.5791049 0.60161161
-9.0685492 -3.5807967 0.63739949
-9.0565491 -3.580174 0.64159411
-8.919158 -3.5830612 0.68854558
-8.8982677 -3.5838218 0.6956501
-8.8080225 -3.58499 0.7265681
-8.7906551 -3.5845647 0.73258781
-8.7398005 -3.5842991 0.75010955
-8.6978989 -3.5837069 0.76458645
-8.6859035 -3.583086 0.76877916
-8.5841961 -3.5825543 0.80382204
-8.4076424 -3.5805144 0.8647725
-8.3348885 -3.5806942 0.88977957
-8.0874834 -3.5773525 0.97524124
-7.9979577 -3.5806122 1.0056878
-7.869215 -3.5778913 1.0502648
-7.8273134 -3.5772991 1.0647417
-7.7993803 -3.5769053 1.0743926
-7.7764597 -3.5770335 1.0822632
-7.7599874 -3.5765753 1.0879785
-7.737298 -3.5767283 1.0957669
-7.6957045 -3.5767984 1.110067
-7.6628194 -3.5769377 1.1213641
-7.6359024 -3.57686 1.1306314
-7.5730524 -3.575973 1.152346
-7.5311513 -3.5753813 1.1668228
-7.4534392 -3.5760932 1.1934783
-7.2888861 -3.574676 1.2502341
-7.2679334 -3.5743794 1.2574732
-7.2081308 -3.574441 1.2780379
-7.1633677 -3.5760713 1.2932613
-7.1365094 -3.5770493 1.3023955
-7.1035614 -3.5761313 1.3138274
-7.0826082 -3.5758348 1.3210667
-7.0347109 -3.5749331 1.3376393
-7.001853 -3.5755997 1.3488705
-6.9241457 -3.576313 1.3755244
-6.9062405 -3.5769653 1.3816137
-6.8872151 -3.5776577 1.3880841
-6.8644614 -3.5784864 1.3958223
-6.8480473 -3.5790844 1.4014044
-6.786808 -3.5802546 1.4223446
-6.7150049 -3.5796938 1.4471037
-6.6843424 -3.5794873 1.4576735
-6.6551991 -3.5797539 1.4676698
-6.6342502 -3.5794587 1.4749076
-6.6133022 -3.5791636 1.4821451
-6.5712199 -3.5754027 1.4970233
-6.5055079 -3.5767374 1.5194845
-6.4756026 -3.5767665 1.5297683
-6.4576969 -3.5774188 1.5358579
-6.3649464 -3.5765624 1.5678544
-6.2961869 -3.5769486 1.5914655
-6.2827582 -3.5774374 1.5960323
-6.2504091 -3.5782628 1.6070714
-6.2215223 -3.5786095 1.6169711
-6.191617 -3.578639 1.627255
-6.161716 -3.5786695 1.6375372
-6.0840034 -3.5793819 1.6641929
-6.0541019 -3.5794125 1.6744753
-6.0286779 -3.5792804 1.6832349
-5.9942961 -3.5794725 1.6950413
-5.9763899 -3.5801249 1.7011309
-5.9375362 -3.5804815 1.7144578
-5.8657351 -3.5799203 1.7392166
-5.788023 -3.5806327 1.7658722
-5.7750711 -3.5807514 1.7703146
-5.7536449 -3.5808263 1.7776768
-5.7371683 -3.5803671 1.7833939
-5.7120657 -3.580646 1.7919989
-5.6684141 -3.5807543 1.807003
-5.6564131 -3.580132 1.8111976
-5.54599 -3.5684438 1.8504331
-5.5310402 -3.5684595 1.8555741
-5.4681902 -3.5675721 1.8772886
-5.279315 -3.5748096 1.941484
-5.2404566 -3.5751653 1.9548128
-5.216465 -3.5739226 1.9631984
-5.1056232 -3.5705481 2.001688
-5.0428333 -3.5707169 2.0232687
-5.0279112 -3.57126 2.0283434
-5.0159159 -3.5706391 2.0325363
-4.956109 -3.5706992 2.0531025
-4.9142122 -3.5701089 2.0675776
-4.8723116 -3.5695171 2.0820544
-4.7945404 -3.5691733 2.1088433
-4.7826033 -3.5696077 2.1129029
-4.7317491 -3.5693421 2.1304245
-4.7138438 -3.569994 2.1365137
-4.6839428 -3.570025 2.146796
-4.6660376 -3.5706768 2.1528854
-4.662178 -3.5400982 2.1574874
7.5263939 1.5259324 -8.3459997
7.4958959 1.2724907 -8.4076538
7.5155916 1.1522803 -8.4266453
7.5204382 1.1156254 -8.4327841
7.5380993 1.0471094 -8.4416771
7.5423932 1.0200734 -8.4459887
7.5548906 0.96179724 -8.4543104
7.5811448 0.83921075 -8.4718256
7.5806265 0.7357564 -8.493412
7.5787816 0.68758035 -8.5039454
7.5804281 0.6587162 -8.5094309
7.5745425 0.48845911 -8.5464668
7.6091032 0.4616065 -8.5416574
7.8362856 0.30656481 -8.5055923
7.9589214 0.21528602 -8.4876957
8.0785198 0.14500999 -8.4663601
8.0974789 0.13429093 -8.4628906
8.33887 -0.044748545 -8.4275331
8.6409206 -0.12939382 -8.3544168
8.8396149 -0.33184505 -8.3367233
9.0765886 -0.43322587 -8.2866039
9.1287146 -0.47866082 -8.2803726
9.1510344 -0.48396182 -8.2747717
9.2415314 -0.51052189 -8.2531137
9.2572937 -0.51344681 -8.2489891
9.4232111 -0.55936265 -8.2087059
9.6295986 -0.57495213 -8.1499939
9.6906605 -0.52767062 -8.1218739
10.049356 -0.45511961 -7.9991927
10.067767 -0.45621705 -7.9938946
10.469507 -0.358114 -7.8530016
10.487917 -0.35921144 -7.8477044
10.695989 -0.22744393 -7.7579613
10.725059 -0.15808702 -7.734869
10.726612 -0.13701415 -7.7300377
10.721674 -0.050423145 -7.713582
10.722675 -0.01973176 -7.7069235
10.723127 0.02058053 -7.6984367
10.721389 0.099380493 -7.6826348
10.72239 0.13007188 -7.6759768
10.720556 0.25880504 -7.6498594
10.72237 0.42005754 -7.6159105
10.720632 0.49885774 -7.6001086
10.720346 0.64866138 -7.5691614
10.722806 0.75035858 -7.5473566
10.72116 0.77922201 -7.5418711
10.722522 0.90016222 -7.5164089
10.722974 0.94047451 -7.5079226
10.721328 0.96933794 -7.5024376
10.719041 1.0577595 -7.484807
10.717847 1.1269357 -7.4708352
10.714555 1.1846631 -7.4598646
10.71711 1.2364266 -7.4483747
10.708261 1.3272215 -7.4322219
10.71072 1.4289187 -7.4104166
10.72184 1.5396914 -7.3841324
10.721695 1.6145916 -7.36866
10.722652 1.6702524 -7.356842
10.725204 1.7220134 -7.3453541
10.727393 1.7801912 -7.3326449
10.724466 1.8315046 -7.3228936
10.728023 1.9139594 -7.3047452
10.727931 1.963896 -7.2944283
10.728932 1.9945868 -7.2877698
10.728287 2.054142 -7.2756267
10.734447 2.1633935 -7.2511454
10.736498 2.1998088 -7.2429867
10.735126 2.2238626 -7.2384157
10.734568 2.3784764 -7.2065544
10.736573 2.4398618 -7.1932359
10.73703 2.4801769 -7.1847472
10.730349 2.6455653 -7.1524916
10.722855 2.6803927 -7.1475258
10.720924 2.8590593 -7.1110935
10.720557 2.9138067 -7.0998626
10.71909 2.9877932 -7.0849762
10.719998 3.0684206 -7.0680013
10.719807 3.168288 -7.0473709
10.717519 3.2567096 -7.0297403
10.726375 3.3428221 -7.009244
10.726828 3.3831344 -7.0007572
10.726731 3.433068 -6.9904423
10.723895 3.53111 -6.9709835
10.718408 3.6273229 -6.9526997
10.717214 3.6964986 -6.9387279
10.717667 3.7368109 -6.9302406
10.716569 3.7560539 -6.9265842
10.717381 3.886615 -6.8992939
10.71884 3.9576209 -6.8841472
10.715908 4.1055965 -6.854373
10.71636 4.1459088 -6.8458862
10.715719 4.2054672 -6.8337407
10.714073 4.2343307 -6.8282557
10.714337 4.3745131 -6.7991371
10.716888 4.4262743 -6.7876487
10.715242 4.4551377 -6.7821636
10.712859 4.593492 -6.7542181
10.713768 4.6741204 -6.7372427
10.712671 4.6933622 -6.7335863
10.713936 4.8642359 -6.6978092
10.71265 4.9833484 -6.6735201
10.712005 5.0429034 -6.661377
10.715013 5.1349797 -6.6413999
10.716018 5.1656733 -6.6347399
10.714825 5.234849 -6.6207681
10.718929 5.3076825 -6.6044483
10.722486 5.3901381 -6.5862999
10.726044 5.4725928 -6.5681515
10.7265 5.512908 -6.5596628
10.725402 5.5321503 -6.5560064
10.728313 5.67416 -6.5257144
10.728578 5.8143425 -6.4965959
10.730132 5.8354149 -6.4917641
10.727388 5.8835216 -6.4826217
10.720185 5.9454517 -6.4719543
10.720159 6.0585303 -6.4485378
10.717963 6.0970154 -6.4412241
10.71312 6.1336737 -6.4350834
10.681047 6.2615342 -6.4182224
10.669167 6.3733344 -6.3986282
10.667794 6.3973875 -6.3940573
10.669523 6.4635801 -6.3798265
10.671437 6.5749016 -6.3561912
10.670243 6.6440783 -6.3422194
10.670696 6.6843905 -6.3337326
10.670055 6.743947 -6.3215871
10.40834 6.8127632 -6.3858776
10.252726 6.7264981 -6.4504509
9.9991503 6.700932 -6.5318499
9.9688826 6.700748 -6.5409722
9.8273211 6.6896687 -6.5857525
9.6873989 6.649724 -6.6360207
9.6155663 6.6384587 -6.6599131
9.5713491 6.6255484 -6.6758575
9.2845631 6.5708637 -6.7732563
9.2569466 6.5725102 -6.7812033
9.1279163 6.5669832 -6.8210726
8.9630318 6.5305147 -6.8781128
8.9241142 6.5212607 -6.8917093
8.831769 6.4996419 -6.9239025
8.7323208 6.4900231 -6.9557414
8.7204676 6.4887443 -6.9595637
8.6249256 6.4749193 -6.9911017
8.5504417 6.4618244 -7.0161686
8.4964714 6.4590831 -7.0329342
8.4713593 6.4490061 -7.0425582
8.3312902 6.3955078 -7.0956783
8.2394991 6.3642707 -7.1296973
8.1227379 6.3365059 -7.1704912
8.0049753 6.2780519 -7.2179432
7.7477479 6.2199636 -7.3071756
7.6459436 6.235621 -7.3344855
7.6127334 6.2065039 -7.3504844
7.3914194 6.0655961 -7.446095
7.3449411 6.0280275 -7.4678264
7.3100214 5.9646306 -7.4914398
7.3689623 5.767705 -7.5145445
7.3763428 5.4289942 -7.5824947
7.3685155 5.2604938 -7.6197495
7.3086629 5.0874987 -7.6735497
7.3001952 4.9785557 -7.6986589
7.3422103 4.853045 -7.7120495
7.3162589 4.5358391 -7.7855487
7.2898302 4.2914023 -7.8441167
7.4491134 4.0078101 -7.8550601
7.4680076 3.933949 -7.8646903
7.5100245 3.8084373 -7.8780804
7.5671806 3.6264753 -7.8986211
7.5669479 3.3732169 -7.9511547
7.5650377 3.2618988 -7.9747882
7.5817156 3.1946051 -7.9837227
7.6118951 3.0997295 -7.9943194
7.600059 2.8084621 -8.0582094
7.5817466 2.7596269 -8.0738211
7.5779257 2.5369892 -8.121089
7.5563087 2.3689709 -8.1623821
7.5477753 2.1968858 -8.2005911
7.5113325 1.999341 -8.2524509
7.5235376 1.9139613 -8.2664747
7.5312853 1.842406 -8.2789726
7.526566 1.7160513 -8.3065643
7.523397 1.6107663 -8.3293257
4.4203429 -2.9147635 -0.75948942
4.1787443 -2.9107327 -0.83995962
4.1882453 -3.0473359 -0.85323787
4.1896138 -3.0850255 -0.85732114
4.1899676 -3.1157973 -0.86091089
4.1970787 -3.1259372 -0.85975003
4.3180895 -3.1555738 -0.82277262
4.4280758 -3.1705787 -0.78772616
4.4477496 -3.1756959 -0.78175044
4.6204438 -3.2247274 -0.72979212
4.6773767 -3.2512984 -0.71391678
4.8252702 -3.3329914 -0.67420471
4.8653359 -3.3629675 -0.66439164
4.8960361 -3.3827159 -0.65648437
4.9975004 -3.4521892 -0.63085735
5.1049972 -3.5230896 -0.60338104
5.1671171 -3.5823271 -0.58970428
5.1851244 -3.5830438 -0.58375657
5.2270832 -3.5823395 -0.56961203
5.2480664 -3.5819857 -0.56253815
5.2870526 -3.5823503 -0.54951847
5.327527 -3.5821795 -0.53593552
5.3380194 -3.5820029 -0.53239846
5.3589988 -3.5816507 -0.52532613
5.4024911 -3.5821927 -0.51081789
5.4579544 -3.582026 -0.49221286
5.4789386 -3.5816722 -0.4851388
5.5025506 -3.581722 -0.47723278
5.520926 -3.5821562 -0.47112778
5.5598879 -3.5813308 -0.45797279
5.5834398 -3.5810809 -0.4500508
5.6036472 -3.5806983 -0.44323352
5.6228294 -3.5802727 -0.43675455
5.652813 -3.5802789 -0.42670831
5.6798234 -3.5813539 -0.4177871
5.7008023 -3.5810018 -0.41071495
5.7337623 -3.5799375 -0.3995423
5.7637491 -3.579942 -0.38949475
5.784729 -3.5795898 -0.3824223
5.8102093 -3.5794168 -0.37386337
5.8566742 -3.5788901 -0.35823026
5.8906493 -3.5786591 -0.34681788
6.0065966 -3.578918 -0.30799696
6.0468698 -3.5793338 -0.29455218
6.0675917 -3.5801585 -0.28770795
6.0845737 -3.5796454 -0.28195569
6.2045097 -3.5796688 -0.24176985
6.2292476 -3.5797627 -0.2334919
6.2689815 -3.5798585 -0.22018924
6.2824869 -3.5803962 -0.21572858
6.3049955 -3.5812919 -0.20829421
6.3275042 -3.5821879 -0.2008599
6.3574872 -3.5821941 -0.19081381
6.3829679 -3.5820212 -0.18225479
6.3990355 -3.5821512 -0.17688647
6.4197078 -3.5822942 -0.16997671
6.4465389 -3.5821753 -0.1609717
6.4627128 -3.5826035 -0.15560368
6.4804296 -3.5825744 -0.14966354
6.4954295 -3.5829341 -0.14468068
6.5209155 -3.5827594 -0.13611966
6.5398231 -3.5835121 -0.12987474
6.5644031 -3.5833032 -0.1216132
6.5853868 -3.5829494 -0.11453924
6.6045656 -3.5825255 -0.10806164
6.6933465 -3.5836833 -0.07845208
6.7113538 -3.5843999 -0.072504461
6.7623162 -3.584054 -0.055386066
6.7796988 -3.5835569 -0.049501538
6.8025684 -3.5834496 -0.041825324
6.8360624 -3.5834258 -0.030599177
6.8642492 -3.5833588 -0.021146119
6.897233 -3.5834844 -0.010108918
6.9174657 -3.5831008 -0.0032830387
6.9421887 -3.5825584 0.0050666332
6.9751811 -3.5830235 0.016065791
7.0261469 -3.5826759 0.033185527
7.0561304 -3.5826821 0.043231785
7.0861182 -3.5826869 0.053279653
7.1041241 -3.5834036 0.059226766
7.1413755 -3.5828509 0.071775749
7.1613889 -3.5833085 0.078426763
7.194077 -3.5834205 0.08936654
7.2240601 -3.5834267 0.099412665
7.2660222 -3.5827208 0.11355858
7.2960057 -3.582727 0.12360483
7.322135 -3.5825779 0.13237831
7.3649788 -3.583096 0.14667216
7.3823571 -3.5826006 0.15255508
7.4046922 -3.5823004 0.16007537
7.4245553 -3.5823491 0.16672534
7.4369245 -3.5823963 0.17086434
7.4669075 -3.5824025 0.18091047
7.543355 -3.581882 0.20658953
7.5818372 -3.5818291 0.21949069
7.6902637 -3.5811954 0.2558991
7.7071872 -3.5812743 0.26156038
7.7397432 -3.581383 0.27245629
7.7697248 -3.5813892 0.28250191
7.7817049 -3.580677 0.28660208
7.8626542 -3.5803356 0.31376806
7.8851638 -3.5812314 0.32120273
7.9016414 -3.5807002 0.32678813
7.9915943 -3.5807173 0.35692787
8.0245523 -3.5796528 0.36809987
8.0545359 -3.5796592 0.37814611
8.0695429 -3.5802565 0.38310274
8.0815468 -3.5807343 0.3870675
8.1466627 -3.5809498 0.40886086
8.1655035 -3.58075 0.41519818
8.2224655 -3.5804036 0.43432701
8.2482386 -3.5797665 0.44303989
8.26443 -3.5796976 0.44847372
8.2973881 -3.5786333 0.45964569
8.3363752 -3.5789979 0.47266576
8.3963442 -3.5790088 0.49275911
8.4353304 -3.5793731 0.50577885
8.465313 -3.5793796 0.51582479
8.4833212 -3.5800962 0.52177268
8.5342865 -3.5797486 0.53889227
8.5522938 -3.5804653 0.54483986
8.5627842 -3.5802894 0.5483762
8.5852795 -3.580591 0.55587769
8.60326 -3.5801177 0.56195974
8.6692581 -3.5815575 0.58390117
8.6902361 -3.5812051 0.59097302
8.729228 -3.5815682 0.60399485
8.789197 -3.581579 0.62408817
8.8191805 -3.5815852 0.63413441
8.8491621 -3.5815914 0.64418006
8.8671703 -3.5823081 0.65012801
8.9871111 -3.5823298 0.69031566
9.0170927 -3.5823359 0.70036125
9.0470753 -3.5823421 0.71040726
9.0680599 -3.5819883 0.71748149
9.1834927 -3.5818322 0.75618005
9.20749 -3.5821929 0.76417768
9.2666941 -3.5815804 0.7840898
9.2779474 -3.5820284 0.78780663
9.3169394 -3.5823915 0.80082846
9.3424196 -3.5822184 0.80938745
9.3588963 -3.581687 0.81497252
9.3828878 -3.5816908 0.82301128
9.3978882 -3.5820501 0.82799435
9.4278698 -3.5820563 0.83803999
9.439846 -3.5813458 0.84213865
9.5088205 -3.5817149 0.86520648
9.5268269 -3.5824316 0.87115371
9.5568142 -3.5824361 0.88120139
9.5957994 -3.5828006 0.89422083
9.625783 -3.5828068 0.90426707
9.6593742 -3.5829549 0.91550517
9.6782789 -3.5837073 0.92174923
9.6992579 -3.5833552 0.92882133
9.7337437 -3.5835407 0.94035459
9.7592287 -3.5833659 0.94891524
9.8146925 -3.5831993 0.96752048
9.8566847 -3.5836816 0.98153317
9.8716898 -3.5842788 0.9864893
9.9136543 -3.5835731 1.0006359
9.936162 -3.5844686 1.00807
9.9586706 -3.5853648 1.0155042
9.9886541 -3.585371 1.0255506
10.00666 -3.5860877 1.0314978
10.054651 -3.5868106 1.0474917
10.11462 -3.5868213 1.0675851
10.10428 -3.5087421 1.0735292
10.144587 -3.174026 1.1273715
10.067637 -2.9947274 1.1231942
10.058266 -2.6300063 1.1640059
10.046597 -2.4929092 1.176617
9.9924879 -2.4475884 1.1639477
9.9438696 -2.4295909 1.1498252
9.5311003 -2.2933505 1.0279309
9.4410887 -2.2916882 0.99796975
9.1895123 -2.2986584 0.91283047
9.0513868 -2.2929847 0.86723042
8.9669275 -2.2795882 0.84054387
8.7897692 -2.3552327 0.77206504
8.2998495 -2.5677483 0.58229077
8.2787666 -2.5652802 0.57552361
8.2185411 -2.5582185 0.55619401
8.0933285 -2.5453746 0.51578498
8.0259428 -2.5391529 0.4939549
7.9146495 -2.5296185 0.45781121
7.8329835 -2.5102177 0.43278417
7.7091837 -2.4694262 0.39621651
7.6078014 -2.4393835 0.36586529
7.5488243 -2.4295554 0.34728736
7.51056 -2.4242911 0.3351
7.4039454 -2.4198716 0.29990771
7.3914838 -2.4233184 0.29531664
7.3743205 -2.4297364 0.28879207
7.2839866 -2.5034528 0.24963914
7.2418365 -2.5806301 0.22621481
6.7110739 -2.8273077 0.018637776
6.7000709 -2.8268695 0.015003636
6.6570106 -2.824549 0.00085446239
6.6301246 -2.8276491 -0.0085282028
6.5536771 -2.8281696 -0.034207284
6.4385977 -2.8381984 -0.073977172
6.3937283 -2.8408854 -0.089335978
6.2823725 -2.8304374 -0.1253905
6.2687774 -2.8274317 -0.12958381
6.1871109 -2.8080313 -0.15461102
6.1240501 -2.8057983 -0.17547259
6.1014996 -2.8041503 -0.18283039
6.0594287 -2.801496 -0.1966078
6.0384493 -2.8018482 -0.20368013
5.9575 -2.8021896 -0.23084608
5.9275126 -2.8021851 -0.24089381
5.8885264 -2.8018203 -0.25391355
5.8316116 -2.8043075 -0.27328452
5.7836213 -2.8035843 -0.28927824
5.7626424 -2.8039365 -0.29635033
5.6636858 -2.8035612 -0.32946393
5.592279 -2.7919328 -0.3519899
5.5794015 -2.7951021 -0.35668686
5.44874 -2.8303397 -0.40471593
5.341413 -2.8465135 -0.44262859
5.2996597 -2.8526118 -0.45735434
5.2217765 -2.8694496 -0.48548093
5.0002308 -2.8648038 -0.55915749
4.8310328 -2.8713136 -0.61663759
4.7191091 -2.8852072 -0.65581584
4.6747384 -2.8853409 -0.67069983
4.570303 -2.8945239 -0.70680118
4.5069652 -2.9059782 -0.72940505
4.4735198 -2.9097786 -0.74107003
-3.625119 0.99084854 0.51063645
-3.7747972 0.97590041 0.46183407
-3.8375087 0.96451473 0.44057465
-3.8644955 0.95605493 0.43086147
-3.8846705 0.9359653 0.421417
-3.8837931 0.9164139 0.41858858
-3.8390596 0.85883379 0.42333388
-3.7933974 0.81917238 0.43120891
-3.6539805 0.7813555 0.46846026
-3.5899675 0.76836944 0.48625833
-3.5732665 0.76423931 0.49078417
-3.554522 0.76359749 0.49649709
-3.4591782 0.74877298 0.52372277
-3.1592138 0.63897967 0.59936303
-3.0743926 0.55423737 0.61223638
-3.0111191 0.47556153 0.61938745
-2.8599608 0.21754429 0.62536001
-2.8424449 0.14088568 0.61863649
-2.6868958 -0.079835415 0.63188577
-2.6591194 -0.18934293 0.62313575
-2.6407235 -0.24764419 0.61959654
-2.6349487 -0.26995212 0.61785018
-2.6007872 -0.36328551 0.61364585
-2.5597043 -0.4513461 0.61242491
-2.540436 -0.4877125 0.61263484
-2.501359 -0.54816222 0.61517042
-2.4660523 -0.59051633 0.61940604
-2.4263425 -0.649665 0.6223442
-2.3549101 -0.72393262 0.63272536
-2.243418 -0.82694793 0.65097445
-2.2202599 -0.85411125 0.65385056
-2.1985517 -0.87220657 0.65771496
-2.1285205 -0.93577826 0.66935766
-2.0402825 -1.0297058 0.68183428
-2.0107503 -1.0718061 0.6843189
-1.9696634 -1.1112503 0.69080913
-1.9409214 -1.1418937 0.69486552
-1.9135181 -1.1638039 0.69989163
-1.8285531 -1.2206827 0.71722841
-1.7720789 -1.2641146 0.72785956
-1.6819429 -1.3124155 0.74816072
-1.5844694 -1.3887073 0.76629907
-1.515733 -1.4343535 0.78038293
-1.3969148 -1.4667904 0.81209743
-1.1859293 -1.5711203 0.86100197
-1.099265 -1.6144549 0.88101387
-1.0747261 -1.6238383 0.88713795
-1.0468621 -1.6349304 0.89402258
-0.94212496 -1.6845539 0.91864347
-0.88573694 -1.7160592 0.93113929
-0.8291772 -1.7536139 0.942729
-0.80451834 -1.7712883 0.94757551
-0.75105679 -1.8130749 0.957533
-0.62545657 -1.9693242 0.97171628
-0.55275679 -2.0367219 0.98358011
-0.51585293 -2.0495265 0.99299741
-0.3032943 -2.1531062 1.0425088
-0.26307952 -2.172997 1.0518295
-0.20222656 -2.1974483 1.0668291
-0.17437702 -2.2011039 1.0748885
0.0021021962 -2.2154601 1.1273576
0.12779632 -2.2476611 1.1612425
0.23753259 -2.267796 1.1920907
0.31940469 -2.276839 1.2160542
0.37288871 -2.2876141 1.2309368
0.43872157 -2.307188 1.2482545
0.52147198 -2.3357825 1.2693899
0.633973 -2.3545036 1.30132
0.7657721 -2.3335838 1.3455231
0.78224969 -2.3328285 1.3507544
1.07245 -2.4103944 1.4284766
1.3006591 -2.3686416 1.505891
1.5558441 -2.4302137 1.5752875
1.5969948 -2.407959 1.5915822
1.6228698 -2.3930225 1.6019776
1.6371218 -2.3628938 1.6111768
1.6481513 -2.3423676 1.6178534
1.7460765 -2.1134281 1.6845379
1.7562324 -2.0733485 1.6940446
1.7592107 -2.0525887 1.6982607
1.7858146 -1.933562 1.7253897
1.8056844 -1.8436289 1.7458158
1.8204068 -1.8037705 1.756704
1.8396298 -1.7333157 1.7738403
1.8582026 -1.6823415 1.7876858
1.890417 -1.601209 1.8105457
1.9442691 -1.5085739 1.8419418
1.9818374 -1.4304833 1.8659801
1.9927205 -1.4066987 1.8731282
2.0242038 -1.3092732 1.8983451
2.0434973 -1.2696342 1.9106164
2.0520258 -1.2441087 1.9173101
2.0858676 -1.1484226 1.9429829
2.1180828 -1.0672905 1.965843
2.1342897 -1.0254512 1.9775057
2.194165 -0.88429344 2.0184655
2.2577689 -0.75256282 2.059087
2.3320506 -0.6554864 2.0975251
2.1760294 -0.68345243 2.0446906
2.1156483 -0.68364716 2.025929
1.8080643 -0.68374437 1.9304976
1.7854596 -0.67863178 1.9242963
1.1983465 -0.14226772 1.8272283
1.1776848 0.008326441 1.8447013
1.1368799 0.1094262 1.8480763
1.1250541 0.13104931 1.847837
1.0982692 0.16891471 1.845533
0.94507027 0.68187785 1.8793588
0.94903934 0.73786211 1.8894684
0.96028686 0.80343711 1.9033569
0.96526253 0.8459307 1.9116395
0.95662093 0.90155423 1.9177799
0.9548558 0.91316688 1.9190739
0.92066503 0.9635812 1.9164627
0.8344295 1.2861286 1.9408636
0.83176529 1.3259718 1.9463558
0.82828939 1.3413128 1.9477104
0.80949068 1.3841603 1.948674
0.77445447 1.4106307 1.9420033
0.75573254 1.4212834 1.9378848
0.49665073 1.6364164 1.8916324
0.33614823 1.631272 1.841027
0.21672937 1.5866808 1.7969103
0.18974188 1.578221 1.787197
-7.7575445e-005 1.5534258 1.7243807
-0.093451858 1.5665884 1.6975025
-0.24137579 1.5125375 1.643043
-0.26515886 1.4957156 1.6329975
-0.3010962 1.4460887 1.6139792
-0.90573019 1.3307605 1.4081256
-0.93635905 1.3404387 1.4001591
-0.97129631 1.3362855 1.3886626
-1.1116228 1.3103042 1.3410114
-1.2191187 1.3190279 1.3090485
-1.2818297 1.3076423 1.2877893
-1.4749384 1.2686092 1.2216948
-1.5371255 1.2700473 1.2026317
-1.6295922 1.2487862 1.1705759
-1.7126731 1.208672 1.1384417
-1.9764431 1.1555084 1.0481863
-1.9947269 1.1563858 1.0426536
-2.1054735 1.1360042 1.0050666
-2.1567163 1.1353687 0.9890697
-2.1686232 1.134394 0.98522151
-2.3712652 1.143043 0.92373145
-2.5269117 1.135044 0.8741796
-2.5515726 1.1377735 0.86696243
-3.0315731 1.0677732 0.70696002
-3.0526216 1.0672371 0.70034552
-3.1038649 1.0666016 0.68434852
-3.2812924 1.0345087 0.62421906
-3.4850554 1.030881 0.56043428
-3.5033391 1.0317584 0.55490166
-3.5152497 1.0307815 0.55105191
4.4818454 4.5317183 -0.18685162
4.4854174 4.5559006 -0.18186504
4.4829192 4.6744709 -0.16314554
4.4866033 4.7115798 -0.15600818
4.4952698 4.7858167 -0.14135855
4.5004807 4.8487992 -0.12954301
4.5085998 5.0577221 -0.092973709
4.4673247 5.1569929 -0.088520825
4.4374266 5.2070513 -0.088876665
4.399961 5.218502 -0.097727478
4.3439736 5.2307987 -0.11174309
4.1225858 5.220005 -0.17690349
4.0644417 5.221067 -0.19337815
4.0525961 5.2200108 -0.1969431
4.0318661 5.2185235 -0.20312262
3.8273821 5.2355771 -0.25887841
3.5094512 5.1367607 -0.36611021
3.1760163 4.7562442 -0.52395475
3.0765102 4.7365265 -0.55567878
2.9670966 4.7325864 -0.58765364
2.8073299 4.7312713 -0.63361609
2.7610266 4.7333875 -0.64652747
2.7280796 4.7316999 -0.65623796
2.6266356 4.7265983 -0.68612123
2.4504635 4.7087898 -0.73948449
2.3694787 4.6882257 -0.76604396
2.1338892 4.7007504 -0.83144867
2.0507882 4.7289753 -0.85061711
1.8458056 4.7661228 -0.90322208
1.6907358 4.7489452 -0.95043957
1.5717075 4.7328348 -0.98716235
1.5212399 4.7292337 -1.0022032
1.3188006 4.7078376 -1.0636758
1.300279 4.708684 -1.0688405
1.2680606 4.708559 -1.0780861
1.2479905 4.708519 -1.0838395
1.2272025 4.7088308 -1.0897408
0.94478965 4.7755418 -1.1596711
0.76861453 4.7577314 -1.2130355
0.64090335 4.7490416 -1.2510281
0.55211389 4.7564011 -1.2752454
0.50008059 4.7685704 -1.2881497
0.26233339 4.7698598 -1.3560138
0.091144323 4.7891793 -1.4018646
0.024158955 4.7809048 -1.4224012
-0.22885752 4.7991786 -1.4918535
-0.32253432 4.7970738 -1.5190215
-0.34105587 4.7979202 -1.5241861
-0.48813438 4.8095918 -1.5643868
-0.76094508 4.8579826 -1.6345706
-0.90499592 4.8599401 -1.6754966
-1.0422125 4.8272581 -1.7201434
-1.1307232 4.8281102 -1.7453475
-1.2407734 4.8180814 -1.7785026
-1.2517545 4.8175197 -1.781739
-1.4005718 4.8081965 -1.8258786
-1.5136123 4.8264565 -1.8552532
-1.3951213 4.6922598 -1.8433213
-1.3451967 4.6880493 -1.8297162
-1.3054674 4.6853943 -1.8187754
-1.1232836 4.6866441 -1.7664049
-1.0436101 4.6764584 -1.7452612
-0.98288035 4.6768756 -1.7278036
-0.90321064 4.6666865 -1.7066615
-0.71597338 4.6579671 -1.6544781
-0.63124633 4.6378117 -1.6335213
-0.59378076 4.6263604 -1.6246705
-0.41595674 4.5451145 -1.5870702
-0.28182411 4.5074801 -1.554832
-0.20044374 4.4782701 -1.5363176
-0.17274475 4.4688621 -1.5299284
-0.056998968 4.4083338 -1.5067075
0.041847706 4.3567195 -1.4868643
0.1181066 4.3110089 -1.4725211
0.16236424 4.2927289 -1.4628448
0.27445936 4.2453523 -1.4385135
0.34150767 4.2065253 -1.4256793
0.42759418 4.1400099 -1.4119322
0.49119711 4.0892096 -1.4020472
0.52316332 4.0674725 -1.396457
0.59063876 4.0188894 -1.3850996
0.7247628 3.971251 -1.3545035
0.86254001 3.8999779 -1.3267354
0.89053333 3.8938296 -1.3197277
1.0248915 3.8713243 -1.284945
1.1967021 3.8066363 -1.2463524
1.2798041 3.7784116 -1.2271837
1.4481637 3.733197 -1.1863875
1.5134109 3.7204771 -1.1697898
1.6141911 3.7109234 -1.1424989
1.6327119 3.7100768 -1.1373345
1.8894041 3.6981831 -1.0657839
1.9105055 3.6988139 -1.0596384
1.9223473 3.699868 -1.0560749
2.1213179 3.6792793 -1.0024773
2.2009914 3.6690922 -0.98133367
2.2708259 3.6523299 -0.96408504
2.4012327 3.6192298 -0.93217039
2.6191473 3.5880365 -0.87488657
2.8886395 3.5706077 -0.80057818
2.9092059 3.5680697 -0.79510528
3.0756979 3.5960612 -0.74284464
3.1857347 3.5860827 -0.71297276
3.3737063 3.5449219 -0.66589648
3.3948126 3.5455549 -0.65974927
3.5044255 3.5453336 -0.62839943
3.7012346 3.5135064 -0.57726288
3.8010025 3.5071902 -0.54973102
3.8164372 3.506485 -0.54542708
3.870486 3.5088031 -0.52957106
3.8833666 3.5101619 -0.52566016
4.0434093 3.5104764 -0.47978273
4.1433392 3.5204351 -0.44953695
4.3332934 3.5246849 -0.39444974
4.3451347 3.5257392 -0.39088634
4.3953342 3.5558527 -0.37157652
4.4207549 3.5789564 -0.36051077
4.459332 3.6338668 -0.34046444
4.4082398 3.9494247 -0.30337095
4.4257274 4.0589404 -0.28041297
4.4485831 4.2477136 -0.24292684
4.461781 4.3395443 -0.22409588
4.4625816 4.3971395 -0.21442616
4.4632368 4.4125152 -0.21171838
6.7741385 6.304203 -6.0630817
6.5335917 6.2776856 -5.47965
6.4690404 6.2780766 -5.3215055
6.4521632 6.2778082 -5.2802362
6.3719354 6.3243914 -5.0739913
6.3247962 6.3041463 -4.9628224
6.2469354 6.2596679 -4.7815256
6.1953459 6.2372274 -4.6599221
6.1574912 6.1636076 -4.5827131
6.1431375 6.1414056 -4.5522351
6.1297569 6.1216955 -4.5236168
6.0861521 6.069428 -4.4278378
6.0301204 6.0190868 -4.3012252
5.9713922 5.9472604 -4.1725273
5.9237938 5.9227595 -4.0611305
5.856225 5.9277043 -3.894639
5.7718606 5.9394898 -3.6855838
5.743576 5.9376245 -3.6167181
5.7336516 5.936759 -3.5925989
5.7252107 5.936625 -3.5719578
5.7160435 5.9265532 -3.5516291
5.5849676 5.9092231 -3.2343183
5.5625958 5.9294262 -3.1752892
5.5449619 5.9383645 -3.1302304
5.5315614 5.9377975 -3.0975366
5.4565554 5.9582281 -2.9095783
5.4376655 5.9781322 -2.8591375
5.3665538 6.0408049 -2.6718309
5.3463969 6.0716767 -2.6159813
5.2919917 6.0846324 -2.4800384
5.2810426 6.0872908 -2.4526691
5.2646756 6.0852609 -2.4130187
5.259716 6.0848279 -2.4009657
5.1718764 5.8746419 -2.2300851
5.091609 5.7372417 -2.0624385
5.0452619 5.6695046 -1.9631977
5.0190363 5.6091805 -1.9116685
4.9897881 5.5534105 -1.8517793
4.8329067 5.3797073 -1.504168
4.8046222 5.3778419 -1.4353023
4.7445607 5.3421421 -1.2957432
4.6820226 5.3223596 -1.1467707
4.6388435 5.2869272 -1.0484936
4.4981751 5.3555741 -0.68961167
4.4625993 5.4060531 -0.59188271
4.4347734 5.4084435 -0.52324462
4.4133177 5.393568 -0.47383618
4.3660345 5.3800526 -0.36089969
4.3462515 5.3208928 -0.32490158
4.3277507 5.2316232 -0.29837441
4.3206115 5.1822357 -0.29128027
4.3112626 5.1221795 -0.28101969
4.3125443 5.0920696 -0.29049063
4.3154669 4.9609599 -0.32522178
4.3085003 4.790699 -0.34397197
4.3103375 4.7205415 -0.36322594
4.3055706 4.5800915 -0.38109303
4.2964149 4.3800192 -0.40075254
4.2977729 4.2990441 -0.42110825
4.2978492 4.2481785 -0.43199253
4.296936 4.1882572 -0.44235969
4.2871895 4.0665178 -0.44409823
4.2841625 4.0113478 -0.44828963
4.2776508 3.7856185 -0.47981906
4.2046309 3.4633012 -0.3688097
4.0319114 3.1829829 -0.0048398972
3.997663 3.1650662 0.075253487
3.9534903 3.1462831 0.17946577
3.9448476 3.1153078 0.19411421
3.9400826 3.0602877 0.19421005
3.9237542 2.9345429 0.20774579
3.9274027 2.8133705 0.17332697
3.9235489 2.7328427 0.16582727
3.9196796 2.6618869 0.16037822
3.9182239 2.5754881 0.14577174
3.9171176 2.5416768 0.14136958
3.9120579 2.4146891 0.12705159
3.9200315 2.2397094 0.070725679
3.9224591 2.091218 0.033550501
3.9220157 2.067821 0.029716015
3.922925 1.9568833 0.0041575432
3.9174418 1.7873548 -0.018071175
3.902019 1.6361027 -0.012117863
3.8749008 1.4967141 0.024968386
3.8719547 1.4761083 0.027848959
3.851037 1.3453281 0.051563025
3.8395143 1.2363176 0.056851625
3.8299549 0.93272185 0.016407251
3.8469281 0.69750118 -0.074625015
3.8406086 0.59223604 -0.081290007
3.839817 0.41745758 -0.11611104
3.8432493 0.28458595 -0.15246034
3.8430886 0.21545911 -0.166605
3.8410497 0.014621496 -0.20385265
3.8394785 -0.011102438 -0.20541549
3.843329 -0.1014328 -0.23384166
3.8449845 -0.2215755 -0.26316381
3.863699 -0.29146457 -0.32368684
3.894155 -0.63377404 -0.47025609
3.8903966 -0.69888043 -0.47474623
3.886857 -0.74200583 -0.47514939
3.8820429 -0.84488058 -0.48499751
3.8836479 -0.91716599 -0.5041306
3.8865449 -1.0291328 -0.53477287
3.8865855 -1.0674183 -0.54292417
3.8931251 -1.1105568 -0.56801033
3.9227829 -1.1831043 -0.65588903
3.9409871 -1.2512321 -0.71479321
3.9971046 -1.3903468 -0.88146234
4.0196199 -1.6831396 -0.99817348
4.0106254 -1.8140848 -1.0036888
4.0010748 -1.9049823 -0.99942088
3.9894149 -2.0807498 -1.0078363
3.9898109 -2.1791685 -1.0295053
4.0092416 -2.2199786 -1.0856669
4.0359321 -2.2246935 -1.1520131
4.049953 -2.2200396 -1.1853671
4.0802155 -2.200062 -1.2552671
4.1704936 -2.1060979 -1.4565618
4.1781831 -2.0967586 -1.4734261
4.2100644 -1.9877794 -1.5285714
4.2904291 -1.6366451 -1.6515052
4.2953739 -1.617069 -1.6594956
4.3245821 -1.5230138 -1.7112334
4.3232946 -1.4929035 -1.7017493
4.2995095 -1.3600013 -1.6155562
4.4465384 -0.68060517 -1.8326867
4.4525957 -0.66526651 -1.8442916
4.4624791 -0.62611532 -1.8602592
4.4677844 -0.60157084 -1.8680874
4.5022631 -0.40109682 -1.9103503
4.6617274 -0.084486246 -2.23423
4.8680058 -0.056743622 -2.7334929
4.8799229 -0.056908369 -2.7627087
4.8883638 -0.056774378 -2.7833498
4.9010129 -0.0470016 -2.8122666
4.9143934 -0.027292013 -2.8408847
4.9528346 0.019405842 -2.9251919
5.1469626 0.0033459663 -3.4039168
5.1631336 -0.025465965 -3.4495733
5.1758027 -0.034836531 -3.4825656
5.1842384 -0.034702301 -3.5031936
5.3095431 -0.17343974 -3.8391972
5.3565278 -0.29161668 -3.9790993
5.3812051 -0.27615929 -4.0362735
5.4034348 -0.26434684 -4.088222
5.4300551 -0.2489531 -4.1501675
5.5069366 -0.20149827 -4.3284402
5.6168714 -0.18805671 -4.5948029
5.6253071 -0.18792248 -4.6154304
5.6618161 -0.19762301 -4.7068677
5.7158403 -0.22210956 -4.8443027
5.7449121 -0.24202967 -4.9196787
5.7614288 -0.24673033 -4.9611101
5.8021607 -0.26593423 -5.0648861
5.8302488 -0.29491138 -5.1397576
5.8577614 -0.26469755 -5.2007713
5.9681249 -0.17644691 -5.4524493
6.0241437 -0.13266945 -5.5804114
6.2650433 0.045228481 -6.1328697
6.309988 0.035663128 -6.244935
6.3360581 0.026859045 -6.3106217
6.3837528 0.0070574284 -6.4315734
6.4461451 -0.061429977 -6.5987525
6.4826541 -0.071130514 -6.6901898
6.6302838 -0.27546573 -7.094655
6.67869 -0.26618838 -7.2112322
6.7102342 -0.2763207 -7.2906036
6.7186699 -0.27618647 -7.3112311
6.8153248 -0.15589905 -7.5226045
6.8413739 -0.14556003 -7.5842142
6.8654108 -0.11504793 -7.6366539
6.9013643 -0.084699869 -7.7183084
6.9042902 -0.0449512 -7.7171135
6.9384356 0.20726943 -7.7476764
7.1636939 0.57525325 -8.2218561
7.1844177 0.58019114 -8.2715626
7.2012949 0.58045936 -8.3128319
7.2576075 0.61077607 -8.4443436
7.281249 0.75046337 -8.4728546
7.2786598 0.82982671 -8.4498234
7.2727561 0.97861624 -8.4040737
7.2607698 1.3970692 -8.2867165
7.2860355 1.6257573 -8.3004856
7.2905807 1.7545083 -8.2845364
7.2907825 1.7853501 -8.2785435
7.2924271 1.8552085 -8.2678776
7.3061438 1.99403 -8.2722692
7.3000622 2.2636938 -8.2006626
7.2976952 2.3547564 -8.1757145
7.2964134 2.3848662 -8.1662426
7.2998981 2.5554259 -8.1389046
7.2899828 2.7254188 -8.0788727
7.2879438 2.764735 -8.0656118
7.2623205 2.8130708 -7.9927034
7.2429585 2.8125865 -7.9453955
7.0710216 3.2901757 -7.4239402
7.0815997 3.5484085 -7.3955317
7.0443125 3.7764571 -7.2562666
7.0466957 4.1979704 -7.17345
7.0589957 4.2786317 -7.186604
7.046154 4.4088759 -7.1277666
7.0441356 4.4290495 -7.1185818
7.0690565 4.8994861 -7.0806623
7.065402 5.020659 -7.0462294
7.0523477 5.3100624 -6.9533973
6.9880099 5.6830115 -6.7174206
6.9751682 5.8132558 -6.6585836
6.9482145 5.9138522 -6.5714273
6.8644023 6.1950393 -6.3070636
6.8429432 6.2751646 -6.2376671
6.8366966 6.304842 -6.2161293
-6.0662751 4.3514209 -1.4184818
-6.1282902 4.2916584 -1.2806095
-6.3368006 4.1288347 -0.82862794
-6.3901129 4.1598873 -0.73515165
-6.4592729 4.1700196 -0.60472691
-6.4718204 4.1711926 -0.58086181
-6.4923754 4.1711054 -0.54115629
-6.5409713 4.1518807 -0.4415063
-6.5613694 4.1481156 -0.40098649
-6.5821528 4.01861 -0.3215127
-6.6140242 3.9276977 -0.23236355
-6.6286602 3.8969679 -0.19477205
-6.7323527 3.8026834 0.034043312
-6.7572694 3.7719092 0.091493756
-6.8531113 3.6825638 0.30365434
-6.9013762 3.6412628 0.40937367
-6.9620194 3.5506368 0.5539763
-6.9755263 3.5106091 0.59221363
-6.9888706 3.4200826 0.64548147
-7.0057917 3.3089938 0.71190345
