# .PCD v0.7 - Point Cloud Data file format
VERSION 0.7
FIELDS x y z
SIZE 4 4 4
TYPE F F F
COUNT 1 1 1
WIDTH 1529
HEIGHT 1
VIEWPOINT 0 0 0 1 0 0 0
POINTS 1529
DATA ascii
-8.2246456 -17.050125 2.942754
-8.1259289 -17.147066 2.9065752
-8.0781775 -17.210472 2.8816676
-8.0484304 -17.248343 2.8668818
-8.0088797 -17.291515 2.8504429
-7.9445333 -17.366978 2.8213556
-7.9309545 -17.380491 2.8162987
-7.8394532 -17.482977 2.7770991
-7.7739253 -17.555805 2.7492805
-7.7285509 -17.602213 2.7318215
-7.6923928 -17.64201 2.7166462
-7.650598 -17.685722 2.7001312
-7.6198525 -17.720041 2.6870124
-7.572916 -17.786314 2.6607587
-7.5457597 -17.813339 2.6506457
-7.5253925 -17.833609 2.6430612
-7.4858413 -17.876781 2.6266222
-7.4654741 -17.897051 2.6190374
-7.4518962 -17.910564 2.6139805
-7.431529 -17.930832 2.6063964
-7.4099793 -17.948465 2.6000814
-7.321722 -18.036297 2.567215
-7.2709541 -18.098246 2.543184
-7.2417636 -18.098038 2.5454371
-7.1913204 -18.054096 2.5688787
-7.1444626 -18.014635 2.5900455
-7.1348424 -18.007242 2.5940733
-7.1183133 -17.994108 2.6011875
-7.0375004 -17.927259 2.6371512
-6.9990621 -17.894272 2.6547914
-6.9750533 -17.87237 2.6663916
-6.872858 -17.792105 2.709955
-6.7659388 -17.701317 2.7585878
-6.7202826 -17.662779 2.7792516
-6.6385527 -17.596518 2.8150196
-6.6229415 -17.582796 2.8223293
-6.5917168 -17.555349 2.8369505
-6.5700712 -17.538715 2.8460131
-6.5255995 -17.502813 2.865407
-6.5099859 -17.489088 2.8727183
-6.4835525 -17.467049 2.8845596
-6.4727287 -17.458733 2.8890905
-6.4378781 -17.430223 2.9044566
-6.4126444 -17.409105 2.915796
-6.3898182 -17.389839 2.9261265
-6.3669915 -17.370573 2.9364572
-6.3513775 -17.356848 2.9437687
-6.3357663 -17.343126 2.9510784
-6.3129406 -17.32386 2.9614089
-6.2840791 -17.30168 2.9734931
-6.2167783 -17.246508 3.0032196
-6.1855555 -17.219063 3.0178399
-6.1655269 -17.20252 3.0267415
-6.1555128 -17.19425 3.0311921
-6.1110387 -17.158346 3.0505869
-6.0958209 -17.1455 3.0574749
-6.0773897 -17.130762 3.0654492
-6.0437403 -17.103178 3.0803113
-5.976439 -17.048006 3.1100378
-5.8539076 -16.943491 3.165983
-5.8287172 -16.918957 3.1788511
-5.804709 -16.897055 3.1904516
-5.7518382 -16.852974 3.2141354
-5.7266073 -16.83186 3.2254727
-5.7061844 -16.81444 3.2347975
-5.6905727 -16.800716 3.2421079
-5.6641388 -16.778677 3.2539492
-5.6533155 -16.770359 3.258481
-5.6220913 -16.742912 3.2731023
-5.6064796 -16.729191 3.280412
-5.5764365 -16.704376 3.2937651
-5.5379982 -16.671389 3.3114054
-5.5007401 -16.641027 3.3277802
-5.4406562 -16.591406 3.3544831
-5.3565621 -16.519876 3.3927889
-5.332552 -16.497976 3.4043884
-5.2687979 -16.450706 3.4303079
-5.2327223 -16.422983 3.4454122
-5.1654215 -16.367811 3.4751384
-5.1353803 -16.342999 3.4884906
-5.0885444 -16.30183 3.5104215
-5.0440702 -16.265924 3.5298171
-4.9695563 -16.205214 3.5625618
-4.915504 -16.158497 3.5875154
-4.8842821 -16.131054 3.6021345
-4.7593436 -16.024689 3.6590877
-4.7317057 -16.001722 3.6714339
-4.701664 -15.976911 3.6847856
-4.6788359 -15.95764 3.6951184
-4.6391521 -15.927144 3.7117331
-4.6211138 -15.913282 3.7192852
-4.6090879 -15.90404 3.7243204
-4.5994687 -15.896647 3.7283483
-4.5838571 -15.882925 3.7356584
-4.5598478 -15.861023 3.7472587
-4.5118313 -15.817224 3.7704573
-4.4974003 -15.806134 3.7764988
-4.4817901 -15.792412 3.7838089
-4.4373155 -15.756508 3.8032038
-4.4156699 -15.739873 3.8122668
-4.3844457 -15.712429 3.8268867
-4.3616185 -15.69316 3.8372185
-4.3471889 -15.682071 3.8432603
-4.3159647 -15.654623 3.8578818
-4.307569 -15.646447 3.8621702
-4.2691288 -15.613455 3.8798127
-4.2583055 -15.605137 3.8843446
-4.2474833 -15.596821 3.8888752
-4.2318716 -15.583097 3.8961859
-4.2090449 -15.563831 3.9065166
-4.1778207 -15.536385 3.9211376
-4.1561751 -15.519751 3.9302001
-4.1021247 -15.473037 3.9551523
-4.0792961 -15.453768 3.9654844
-4.0432825 -15.420915 3.9828849
-4.0012369 -15.385155 4.0020356
-3.9856248 -15.371429 4.009347
-3.9471872 -15.338442 4.0269871
-3.8943174 -15.29436 4.0506711
-3.874506 -15.276549 4.0601258
-3.8474813 -15.253192 4.0726023
-3.812628 -15.224681 4.0879693
-3.7801802 -15.198022 4.1023278
-3.7687674 -15.188389 4.1074929
-3.7189159 -15.145764 4.1303
-3.6972692 -15.129128 4.1393638
-3.6504343 -15.08796 4.1612945
-3.6108134 -15.052337 4.1802044
-3.5879843 -15.033066 4.1905375
-3.5663395 -15.016431 4.1996002
-3.5435128 -14.997166 4.2099304
-3.4734247 -14.924429 4.2477417
-3.4578114 -14.910704 4.255053
-3.4713895 -14.897191 4.2601094
-3.5643392 -14.780494 4.3055763
-3.5823238 -14.756671 4.3149314
-3.5939221 -14.753611 4.3154459
-3.6621516 -14.731936 4.3201203
-3.7071619 -14.715796 4.3240299
-3.8028655 -14.671644 4.3367529
-4.0305815 -14.586289 4.358191
-4.0653791 -14.577109 4.3597341
-4.1281857 -14.565508 4.360291
-4.1901717 -14.568699 4.3542738
-4.2651958 -14.574201 4.3462553
-4.3793788 -14.563622 4.3425527
-4.5533667 -14.517726 4.3502665
-4.6144242 -14.487091 4.3594904
-4.6513634 -14.469851 4.3644905
-4.8322039 -14.412072 4.377027
-4.9907289 -14.363729 4.3869824
-5.2241278 -14.309609 4.3939896
-5.2473483 -14.301784 4.395782
-5.4237623 -14.256028 4.4032536
-5.5616746 -14.182408 4.4260716
-5.6048679 -14.181406 4.4233255
-5.8344178 -14.162889 4.4146485
-5.8948603 -14.14602 4.4177427
-6.0737052 -14.060274 4.4429717
-6.1610756 -14.032493 4.4489689
-6.437326 -13.897554 4.4890566
-6.597415 -13.806883 4.5178823
-6.7237349 -13.756875 4.5309672
-6.7589097 -13.742865 4.5346494
-6.8582702 -13.748293 4.5248632
-7.1061006 -13.705264 4.5258279
-7.1720877 -13.684133 4.5304246
-7.323709 -13.670671 4.5252447
-7.4429574 -13.666524 4.5182824
-7.466114 -13.663819 4.5177822
-7.5568657 -13.654921 4.5150595
-7.6788692 -13.628945 4.517684
-7.7716699 -13.625023 4.5125775
6.6538992 -4.4627066 2.435688
6.5229549 -4.6236358 2.3480787
6.5500784 -4.6722379 2.330224
6.6107283 -4.7128668 2.320199
6.7005396 -4.6740222 2.3488574
6.8120108 -4.6193409 2.3872695
6.905406 -4.560976 2.4249673
6.9237108 -4.5522833 2.431149
7.1234426 -4.4865313 2.485816
7.3144884 -4.4287539 2.5358577
7.3647189 -4.4252219 2.5438921
7.4010992 -4.4202113 2.5507889
7.5154057 -4.4146323 2.5679917
7.6175051 -4.419754 2.5789175
7.7388554 -4.3940196 2.6058855
7.7529287 -4.3831286 2.6124873
7.7843742 -4.3562903 2.6283379
7.7949295 -4.3481221 2.6332891
7.8071351 -4.3374214 2.6395659
7.8841019 -4.2728496 2.677871
7.9174185 -4.2458129 2.6940503
7.9594183 -4.2108059 2.7148521
7.9751434 -4.1973825 2.7227798
7.9930925 -4.1825538 2.7316115
8.0072851 -4.171257 2.7384067
8.0363874 -4.1462297 2.7531593
8.0541201 -4.1312547 2.7620275
8.0692406 -4.1183019 2.7696702
8.0835562 -4.1059685 2.7769368
8.1063175 -4.0871034 2.7881632
8.1274271 -4.0707664 2.7980659
8.1431484 -4.0573478 2.8059907
8.1675596 -4.0359507 2.8185427
8.1903219 -4.0170822 2.829771
8.2060442 -4.0036626 2.8376963
8.2252846 -3.9875205 2.8472719
8.260251 -3.9579558 2.8647749
8.2859058 -3.9364321 2.877543
8.374052 -3.8636243 2.9209094
8.4048538 -3.8385355 2.9359083
8.4210491 -3.8260021 2.9435055
8.4336462 -3.8149991 2.9499657
8.5246859 -3.739536 2.9948723
8.5435143 -3.724026 3.004117
8.5737257 -3.69908 3.0189772
8.584281 -3.6909113 3.0239284
8.6018715 -3.6772969 3.0321805
8.6194639 -3.6636839 3.0404322
8.6422224 -3.6448185 3.0516586
8.6614647 -3.6286767 3.0612345
8.6737318 -3.6186452 3.0672252
8.6895027 -3.6057239 3.0749381
8.7097988 -3.5887654 3.0850086
8.7223177 -3.57885 3.090981
8.7357473 -3.5676827 3.097621
8.7473364 -3.5584645 3.1031668
8.7665806 -3.5423183 3.1127448
8.7813559 -3.5308826 3.1196764
8.7998934 -3.515285 3.128922
8.8156185 -3.5018625 3.1368492
8.8299341 -3.4895325 3.1441143
8.8979721 -3.4343729 3.1771314
8.9120455 -3.4234812 3.1837332
8.9505272 -3.3911977 3.2028844
8.963438 -3.3799524 3.2094917
8.9807339 -3.3654938 3.2180767
9.0061426 -3.3444014 3.2306237
9.0274954 -3.3266213 3.2411916
9.0526009 -3.3059418 3.2535179
9.0677385 -3.2929728 3.2611699
9.086195 -3.2770803 3.2705348
9.0971899 -3.2678566 3.2760065
9.1114988 -3.256604 3.2827973
9.1499815 -3.2243166 3.3019505
9.1727419 -3.2054513 3.3131769
9.1955042 -3.1865821 3.3244052
9.2095766 -3.1756921 3.3310063
9.2375355 -3.1519086 3.3450646
9.252985 -3.139596 3.3524687
9.2778568 -3.1190934 3.364687
9.3006163 -3.1002283 3.3759131
9.3320637 -3.0733864 3.3917656
9.3548231 -3.0545211 3.402992
9.3745708 -3.0379858 3.412806
9.4073801 -3.0113425 3.4287469
9.420289 -3.0001009 3.4353523
9.4370699 -2.9858606 3.4437749
9.4521732 -2.9733901 3.4512033
9.461587 -2.9656355 3.4558256
9.4843464 -2.9467704 3.467052
9.5420723 -2.8983402 3.4957812
9.5712481 -2.8740902 3.5102017
9.6531811 -2.8054662 3.5509281
9.666069 -2.7948644 3.5572495
9.6908398 -2.7744429 3.5694194
9.7135973 -2.755579 3.5806448
9.7222862 -2.7476013 3.5852714
9.7835293 -2.6964488 3.6156509
9.8011217 -2.6828341 3.6239033
9.8133259 -2.6721377 3.6301782
9.8816061 -2.6155396 3.6638587
9.9060163 -2.5941434 3.6764102
9.9287767 -2.5752783 3.6876366
9.9405041 -2.5662019 3.6931381
9.9498863 -2.5589411 3.6975391
9.9994287 -2.5180955 3.72188
10.013615 -2.5061159 3.7289743
10.056651 -2.4700551 3.7503729
10.07585 -2.453444 3.7601492
10.088099 -2.4432123 3.7662258
10.096784 -2.4352396 3.7708497
10.11251 -2.4218163 3.7787774
10.142305 -2.397505 3.7933047
10.187827 -2.3597722 3.8157587
10.217621 -2.3354623 3.8302853
10.240381 -2.3165972 3.8415117
10.254456 -2.3057055 3.8481135
10.292939 -2.2734184 3.8672667
10.307013 -2.2625268 3.8738685
10.314874 -2.2558169 3.8778312
10.332118 -2.2418458 3.8861954
10.345495 -2.2302394 3.8930216
10.396403 -2.1895912 3.9174519
10.412126 -2.1761727 3.9253767
10.441924 -2.1518579 3.9399061
10.450609 -2.1438842 3.9445305
10.487445 -2.1141245 3.9623601
10.510204 -2.0952597 3.9735863
10.532963 -2.0763955 3.984812
10.547036 -2.0655041 3.9914141
10.638079 -1.9900367 4.0363226
10.660837 -1.9711723 4.0475488
10.683597 -1.9523072 4.0587749
10.699322 -1.9388838 4.0667024
10.786842 -1.8661442 4.1099582
10.80526 -1.851264 4.1188731
10.849845 -1.8136292 4.1411633
10.858641 -1.806823 4.1452889
10.877886 -1.7906768 4.1548672
10.88844 -1.7825084 4.1598186
10.907681 -1.7663665 4.169394
10.919885 -1.7556703 4.1756687
10.938095 -1.7405751 4.1846514
10.949684 -1.7313557 4.1901979
10.972443 -1.7124915 4.2014236
10.981128 -1.7045178 4.206048
11.033689 -1.6613379 4.2318039
11.047759 -1.6504471 4.2384052
11.070521 -1.6315782 4.2496338
11.100316 -1.6072683 4.2641602
11.123076 -1.5884032 4.2753863
11.148654 -1.5673549 4.2879357
11.163429 -1.5559207 4.2948666
11.179152 -1.5425014 4.3027921
11.20543 -1.5209134 4.3156691
11.224673 -1.5047678 4.3252463
11.266673 -1.4697604 4.3460484
11.285917 -1.4536153 4.3556261
11.298817 -1.4436313 4.3616776
11.310545 -1.4345556 4.3671789
11.341993 -1.4077128 4.3830318
11.359584 -1.3940994 4.3912835
11.377176 -1.3804853 4.3995357
11.399936 -1.3616196 4.4107623
11.414008 -1.3507299 4.4173632
11.450842 -1.3209727 4.4351916
11.496363 -1.2832401 4.4576454
11.489779 -1.2639393 4.4652762
11.363591 -0.92694652 4.5970621
11.321945 -0.84115374 4.629384
10.906364 -0.45620513 4.7448936
10.879077 -0.43096924 4.7524605
10.849688 -0.43300867 4.7477713
10.821856 -0.43746877 4.7422199
10.607162 -0.53418708 4.6720161
10.324962 -0.58582389 4.6129084
10.300605 -0.59003544 4.6079144
10.251678 -0.62430525 4.5865426
10.142531 -0.71706855 4.5316978
10.131594 -0.72454917 4.5269995
10.048827 -0.77301323 4.4950233
9.9628239 -0.88440311 4.4349809
9.8307133 -0.99756896 4.3682079
9.7607279 -1.0597888 4.3318372
9.7450056 -1.0732087 4.3239117
9.7360907 -1.0935594 4.3138194
9.633584 -1.2413925 4.2356343
9.6317215 -1.28467 4.2163782
9.4446735 -1.6626389 4.0261641
9.3451614 -1.7357864 3.9811816
9.3346081 -1.7439539 3.9762309
9.265728 -1.7894452 3.9473534
9.1391296 -1.8686574 3.8962104
9.0938358 -1.894017 3.8792224
9.0555763 -1.913933 3.8655341
9.0189695 -1.9313154 3.8531721
8.9736767 -1.9566751 3.8361843
8.8288946 -2.0236843 3.7880564
8.7016983 -2.0917881 3.7417173
8.6632175 -2.1240718 3.7225661
8.6522017 -2.1716969 3.7002187
8.6320333 -2.2814569 3.6493886
8.6513367 -2.3641033 3.6155658
8.4255238 -2.8529038 3.3716507
8.3570166 -2.9218752 3.3325043
8.2317066 -3.0276165 3.2698712
8.1826677 -3.0680723 3.2457666
8.1698418 -3.0788338 3.239383
8.1599092 -3.0869379 3.2345405
8.1075258 -3.1319854 3.2079868
8.0012054 -3.1923308 3.1677508
7.9403572 -3.2218304 3.1469364
7.9158363 -3.2420604 3.1348829
7.8229218 -3.3324249 3.0831869
7.8001595 -3.3512933 3.0719588
7.7703648 -3.3756037 3.0574319
7.7285795 -3.4129517 3.035629
7.6917467 -3.442708 3.0178013
7.6760244 -3.4561267 3.009876
7.6007071 -3.5181708 2.9728947
7.52493 -3.6196706 2.9185176
7.4582901 -3.6884513 2.8796961
7.3845501 -3.7520874 2.8422186
7.3389158 -3.7960067 2.8170319
7.3231564 -3.8114886 2.8081954
7.1835213 -3.9173725 2.7436509
7.1626577 -3.9358807 2.7328262
7.1506186 -3.9459991 2.7268264
7.1150141 -3.9863431 2.704505
7.041008 -4.0640159 2.6608257
7.0132961 -4.0908756 2.6454475
6.9852591 -4.1138244 2.6317458
6.9383926 -4.1522865 2.6087976
6.9274244 -4.1610875 2.6035151
6.8307781 -4.2717657 2.5424118
6.7902927 -4.3199229 2.5160275
6.7674408 -4.3437405 2.5026131
6.7236004 -4.3844438 2.4790707
6.6603146 -4.452424 2.4410338
-1.9271171 -7.2729788 3.7922854
-1.9231141 -7.3141642 3.7733052
-1.8867691 -7.3252215 3.770761
-1.8083451 -7.3230791 3.7774367
-1.7270782 -7.2695837 3.8083451
-1.6462317 -7.2282376 3.8335385
-1.5486364 -7.1704564 3.8676336
-1.5375438 -7.1649113 3.8710303
-1.5267637 -7.1579256 3.8750787
-1.5088766 -7.1467962 3.8815799
-1.4962306 -7.1388297 3.8862221
-1.4498804 -7.1099205 3.9031012
-1.0857422 -7.0268435 3.9683137
-0.99508548 -7.0367246 3.9702487
-0.71873689 -7.143311 3.9403708
-0.68877864 -7.1635704 3.933059
-0.56970692 -7.2019334 3.9237237
-0.5556972 -7.2031484 3.9241686
-0.27323544 -7.3158445 3.8918743
-0.18528664 -7.3596239 3.877753
-0.10405171 -7.3945885 3.8672705
-0.0019762516 -7.4421577 3.8523982
0.031142831 -7.4596534 3.8466082
0.074556231 -7.474081 3.8429985
0.15299392 -7.4915462 3.8405011
0.17974114 -7.496913 3.8399253
0.32878828 -7.5181541 3.8407693
0.38996077 -7.5192633 3.8446755
0.44353199 -7.5233102 3.8466575
0.50049996 -7.5242929 3.8503189
0.58034986 -7.5203214 3.8579535
0.60012144 -7.5205326 3.8592849
0.7593016 -7.5454845 3.8591259
0.78848058 -7.5451641 3.8613868
0.84449053 -7.5410728 3.8673527
0.92410558 -7.5451269 3.8712153
1.0283127 -7.5393186 3.8814716
1.0618291 -7.5354013 3.8857291
1.1069468 -7.5311007 3.891005
1.2591467 -7.5012259 3.9159932
1.3247051 -7.4924893 3.9248235
1.4177198 -7.4901843 3.9326308
1.5114563 -7.44701 3.9596124
1.7433012 -7.3812604 4.0071473
1.8244803 -7.3671703 4.0196123
1.8742011 -7.3454661 4.0333643
1.8885037 -7.339107 4.037374
2.0610924 -7.2925816 4.0716281
2.2461655 -7.2644329 4.0981865
2.3351059 -7.2728662 4.1006751
2.3771358 -7.2765117 4.1020098
2.43997 -7.2880545 4.1011548
2.4539802 -7.289269 4.1016002
2.5742118 -7.2772341 4.1159286
2.5900249 -7.2770824 4.1171436
2.810816 -7.2031446 4.1677098
2.8438137 -7.1940155 4.1743684
2.9136267 -7.1669455 4.1920843
2.9804614 -7.1243882 4.2168307
3.0416272 -7.0845075 4.2399149
3.1767042 -7.0215321 4.2791519
3.2169447 -7.0030675 4.2907019
3.2476888 -6.9852185 4.3012772
3.3122213 -6.9507875 4.3220553
3.3730018 -6.9109435 4.3450942
3.4206395 -6.8848052 4.3607702
3.4834476 -6.8571272 4.378264
3.565033 -6.8251801 4.3991132
3.6626282 -6.7673988 4.433208
3.748636 -6.6691995 4.4853754
3.760618 -6.6582479 4.4913664
3.7726016 -6.6472926 4.4973588
3.8838885 -6.5691772 4.5419583
3.905534 -6.5527759 4.551198
3.9478488 -6.5253329 4.5670991
4.0164003 -6.4868102 4.5900822
4.055377 -6.4525933 4.608911
4.4825215 -6.3496246 4.6879888
4.5026722 -6.3333702 4.6970515
4.5207596 -6.2946887 4.7164583
4.4864697 -6.2170854 4.7502866
4.4412756 -6.05267 4.8239436
4.4169779 -6.0042362 4.8448472
4.3548932 -5.8603101 4.9076958
4.319706 -5.7512136 4.9561944
4.2100959 -5.5901599 5.0236187
4.1915693 -5.5349135 5.0481272
4.1824446 -5.4971404 5.0651402
4.1272316 -5.3379536 5.1356263
4.1092029 -5.2910786 5.1562538
4.0979276 -5.2490869 5.1750855
4.0547194 -5.142488 5.2218351
4.0391216 -5.0552135 5.2615409
3.9575334 -4.8965859 5.3298569
3.9345672 -4.8096786 5.3688579
3.9000616 -4.6655102 5.433815
3.8956373 -4.6364756 5.4470797
3.8624346 -4.5661983 5.4775591
3.8498263 -4.5575376 5.4806991
3.8164213 -4.5507832 5.4814429
3.7895048 -4.5533357 5.478301
3.7648559 -4.5581102 5.4742842
3.7424715 -4.5651135 5.469388
3.7075636 -4.5786505 5.4605293
3.4552641 -4.6694622 5.3997884
2.6085567 -4.7793436 5.2871251
2.5596349 -4.7312312 5.3060966
2.5126233 -4.6988597 5.3178415
2.4438014 -4.6675668 5.3275042
2.4132628 -4.6671457 5.3254919
1.8997686 -4.3799071 5.4227381
1.8903534 -4.3601809 5.4312863
1.8194933 -4.2632713 5.4715023
1.8071496 -4.250834 5.4764285
1.7867657 -4.2307873 5.4843335
1.7579201 -4.2152801 5.489502
1.7165756 -4.207222 5.4902811
1.4396402 -4.0547953 5.5415649
1.3968731 -4.0130272 5.5580134
1.3663781 -4.0000844 5.5618629
1.349154 -3.9933171 5.5637832
1.3240366 -3.9949982 5.5611796
1.2799979 -3.9982994 5.5564489
1.2587733 -4.0025516 5.5529242
1.2005742 -4.0139666 5.5433731
0.92030728 -4.0131335 5.523488
0.80212498 -4.1182599 5.4657521
0.7411406 -4.2255001 5.4111648
0.72628945 -4.2485847 5.3992896
0.59889013 -4.3862324 5.3256707
0.51946139 -4.4358678 5.2967014
0.44314313 -4.5678372 5.2294345
0.43624628 -4.5948529 5.2162957
0.076066017 -5.0913796 4.9579248
0.030454993 -5.1296878 4.9367018
0.0067360401 -5.154726 4.9232707
-0.082385898 -5.2619228 4.8666682
-0.16958046 -5.323657 4.8314762
-0.20955646 -5.3713984 4.8062472
-0.33003259 -5.5212502 4.7274194
-0.37809086 -5.5595379 4.7060285
-0.43407834 -5.6331182 4.6675515
-0.48368979 -5.7255259 4.6207271
-0.63515759 -5.9187789 4.5193505
-0.64958787 -5.9297132 4.5131907
-0.72000432 -6.0142236 4.4685559
-0.7584002 -6.0470653 4.4504123
-0.76677465 -6.0552831 4.4459615
-0.86514902 -6.1478686 4.3955259
-0.95086622 -6.2458792 4.3434682
-1.0408337 -6.3364968 4.2945614
-1.0600309 -6.3529153 4.285491
-1.3764138 -6.648159 4.1244645
-1.3920035 -6.6618443 4.1169338
-1.4376144 -6.7001529 4.0957103
-1.5435839 -6.8296781 4.027442
-1.695534 -6.9610491 3.9549842
-1.7099645 -6.9719839 3.9488239
-1.7183404 -6.9802055 3.9443712
-1.7751677 -7.0780807 3.8944664
-1.8851407 -7.1981874 3.8303156
-1.9203966 -7.2596641 3.7990012
-8.4409523 -12.593409 3.1101542
-8.363677 -12.629881 3.1040392
-8.208168 -12.656125 3.1129332
-8.146163 -12.666599 3.1164751
-8.0993118 -12.668336 3.1219287
-8.0405502 -12.665114 3.1311965
-7.9387341 -12.672035 3.1416333
-7.8195496 -12.688457 3.15011
-7.7571878 -12.689119 3.1581104
-7.7416773 -12.688046 3.1606572
-7.6741285 -12.683419 3.1717257
-7.4458914 -12.699759 3.1947503
-7.3458829 -12.717468 3.2000966
-7.2509069 -12.742944 3.2012811
-7.0440049 -12.817305 3.1953807
-6.7011714 -12.943786 3.1841354
-6.6206713 -13.019411 3.1608465
-6.5277247 -13.057287 3.1561856
-6.3868504 -13.131199 3.1417012
-6.2297111 -13.169634 3.1453311
-6.099165 -13.239337 3.1313643
-6.0338483 -13.259409 3.1310315
-5.9274216 -13.308611 3.1230726
-5.8586392 -13.340766 3.1177685
-5.7847157 -13.382417 3.1088793
-5.6598501 -13.425479 3.1061344
-5.544035 -13.486331 3.0941868
-5.4977412 -13.510179 3.0896251
-5.4479356 -13.531325 3.0867453
-5.3091345 -13.569753 3.0879383
-5.2236891 -13.604504 3.0836844
-5.1877222 -13.624142 3.0796413
-4.920804 -13.706601 3.0780861
-4.8588395 -13.731853 3.0749788
-4.7720733 -13.773824 3.0676544
-4.7161326 -13.805655 3.0607872
-4.5308385 -13.918295 3.034801
-4.2981305 -14.0743 2.9956279
-4.1919022 -14.135798 2.9821143
-4.0028291 -14.265482 2.9489679
-3.6032031 -14.360909 2.9592419
-3.4470575 -14.460814 2.9351029
-3.2224422 -14.462588 2.9641943
-3.2069306 -14.461514 2.9667411
-3.138942 -14.417526 2.9955654
-3.1005013 -14.385392 3.0151281
-3.0777731 -14.366632 3.0265868
-3.0637383 -14.355851 3.0333016
-3.0550425 -14.347868 3.038048
-3.0149255 -14.313148 3.0589967
-2.9153175 -14.230124 3.1095781
-2.8732896 -14.196537 3.1302717
-2.8558238 -14.18182 3.1392126
-2.8330932 -14.163057 3.1506729
-2.8190575 -14.152274 3.1573887
-2.738513 -14.0878 3.1970942
-2.7298172 -14.079819 3.2018397
-2.6235423 -13.995578 3.2538562
-2.6071672 -13.982998 3.2616911
-2.5378482 -13.927146 3.2960262
-2.5249453 -13.915933 3.3027847
-2.4865036 -13.883801 3.3223467
-2.45508 -13.857057 3.338552
-2.4463863 -13.849079 3.3432956
-2.3695045 -13.784813 3.3824201
-2.2367949 -13.672458 3.4505944
-2.1814227 -13.626885 3.4784517
-1.9957813 -13.469097 3.5740962
-1.9256055 -13.41519 3.607671
-1.8296614 -13.332377 3.6576705
-1.7982382 -13.305635 3.6738751
-1.7772897 -13.287808 3.6846776
-1.7597969 -13.273503 3.6934371
-1.7475952 -13.262828 3.6998603
-1.7302614 -13.248686 3.7085252
-1.6986269 -13.22261 3.7244585
-1.6735603 -13.202054 3.7370358
-1.6531711 -13.185089 3.7473764
-1.6060367 -13.144979 3.7716823
-1.5746135 -13.118236 3.7878871
-1.5151192 -13.069931 3.8175216
-1.3911047 -12.965557 3.8809505
-1.375392 -12.952184 3.8890538
-1.3299356 -12.914663 3.9119718
-1.2948472 -12.887709 3.9287598
-1.2737942 -12.871537 3.9388318
-1.2493887 -12.850186 3.9516788
-1.2336752 -12.836813 3.9597826
-1.1979065 -12.806084 3.978358
-1.1725061 -12.785918 3.9908042
-1.1130142 -12.737617 4.0204368
-1.098979 -12.726836 4.0271516
-1.0840654 -12.715381 4.0342865
-1.0662303 -12.701679 4.04282
-1.0533638 -12.691796 4.0489755
-1.0060718 -12.654165 4.0721874
-0.95191979 -12.608662 4.0998516
-0.92877221 -12.589253 4.1116576
-0.90646076 -12.571138 4.1227713
-0.89074993 -12.557768 4.1308732
-0.87504005 -12.544399 4.1389742
-0.84560585 -12.515282 4.155982
-0.79480672 -12.474958 4.1808715
-0.77207589 -12.456194 4.1923323
-0.7580409 -12.445413 4.1990476
-0.6881783 -12.386541 4.2348123
-0.63570142 -12.343627 4.2610898
-0.62517548 -12.33554 4.2661262
-0.60005522 -12.31581 4.2783394
-0.57788515 -12.297913 4.2893362
-0.5551548 -12.279148 4.3007975
-0.53242636 -12.260388 4.3122563
-0.47293234 -12.212083 4.3418908
-0.45020413 -12.193322 4.3533502
-0.43098497 -12.177258 4.3631301
-0.40474582 -12.155798 4.3762698
-0.39071012 -12.145017 4.3829851
-0.36096406 -12.120866 4.3978014
-0.30681252 -12.075363 4.4254651
-0.24731827 -12.027059 4.4550996
-0.23740292 -12.019008 4.4600387
-0.22108126 -12.005603 4.4682374
-0.20887709 -11.994925 4.4746623
-0.18962622 -11.979357 4.4842234
-0.15640306 -11.952015 4.5009375
-0.14770746 -11.944033 4.5056829
-0.07162118 -11.866285 4.5507627
-0.060257673 -11.856904 4.5564928
-0.013123512 -11.816792 4.5807991
0.1350975 -11.703363 4.6515203
0.16484571 -11.679208 4.6663389
0.18223166 -11.663253 4.6758256
0.26414251 -11.59122 4.7191114
0.31194019 -11.5519 4.7431502
0.32363677 -11.542914 4.7487464
0.33232927 -11.534936 4.75349
0.37778831 -11.497412 4.7764101
0.40920949 -11.470673 4.792613
0.44063306 -11.443932 4.8088174
0.49946284 -11.394835 4.8387194
0.50882006 -11.387646 4.8431969
0.54726148 -11.355515 4.8627586
0.5612967 -11.344731 4.8694739
0.58402467 -11.325974 4.8809319
0.59806037 -11.31519 4.8876476
0.58068633 -11.290809 4.8962979
0.57413983 -11.282396 4.899209
0.54012704 -11.242958 4.9124141
0.49883485 -11.221551 4.916544
0.43978047 -11.191338 4.9222698
0.43015504 -11.18659 4.9231234
0.31536078 -11.109991 4.9422865
0.2126646 -11.059659 4.9512501
0.06908536 -10.950968 4.9810114
0.031633377 -10.941252 4.9803963
-0.097796679 -10.890532 4.9859772
-0.13231754 -10.876287 4.9877877
-0.26013684 -10.876474 4.9706945
-0.34189272 -10.86218 4.9662423
-0.36002612 -10.86419 4.9629254
-0.42611408 -10.866947 4.9528918
-0.44162488 -10.868022 4.9503446
-0.89659309 -10.876166 4.8861408
-0.9352653 -10.862597 4.8870955
-1.4709802 -10.824448 4.8329606
-1.6134864 -10.738344 4.8527093
-1.6798905 -10.712168 4.8556418
-1.8726494 -10.592689 4.8837094
-2.0413494 -10.387944 4.9533134
-2.0513778 -10.365294 4.9621625
-2.062891 -10.352565 4.9663534
-2.0803852 -10.331638 4.973434
-2.0940223 -10.317831 4.9778271
-2.114677 -10.309411 4.9788642
-2.341681 -10.329853 4.9394665
-2.3918819 -10.333291 4.9312406
-2.4231062 -10.347738 4.9205899
-2.4370756 -10.354423 4.9157257
-2.4807234 -10.381158 4.8978977
-2.518966 -10.400996 4.8838897
-2.8002057 -10.496491 4.8035307
-2.8386469 -10.528624 4.7839689
-3.6148508 -10.435122 4.7227187
-3.6244633 -10.421199 4.7276993
-3.6514022 -10.393065 4.7367635
-3.6857729 -10.350694 4.7512398
-3.7223938 -10.301117 4.7686567
-3.8422408 -10.182085 4.8062253
-3.8968804 -10.120276 4.8267436
-3.9798458 -10.007229 4.8665295
-4.027575 -9.9588995 4.881907
-4.0548487 -9.931284 4.8906937
-4.0771523 -9.9156046 4.8947749
-4.1300192 -9.8808804 4.9033523
-4.2493477 -9.7712927 4.9367437
-4.2617984 -9.7620811 4.9392281
-4.3156595 -9.7500324 4.9374781
-4.5145082 -9.844676 4.8684659
-4.5772681 -9.8686037 4.8493567
-4.6607275 -9.8988924 4.8246331
-4.6937823 -9.9134445 4.8136921
-4.7269402 -9.9341469 4.7999721
-4.7530766 -9.9494562 4.7896109
-4.8315783 -9.9966059 4.7579665
-4.8559546 -10.008103 4.7495537
-4.8855038 -10.019963 4.7402892
-4.9562607 -10.0715 4.7077031
-4.9989471 -10.101472 4.6885471
-5.0181704 -10.117541 4.6787648
-5.0785003 -10.167139 4.6484375
-5.0968838 -10.181911 4.6393495
-5.2779202 -10.282824 4.5698895
-5.5628271 -10.378533 4.4889464
-5.663229 -10.385412 4.4724932
-5.7981253 -10.382363 4.4559135
-5.8481269 -10.373507 4.4532418
-5.9104896 -10.372845 4.445241
-5.9538746 -10.383191 4.4348159
-6.0495348 -10.424153 4.4036703
-6.298985 -10.546831 4.3153205
-6.3285322 -10.558687 4.3060584
-6.5194535 -10.616022 4.2548747
-6.6624498 -10.709395 4.1938663
-6.8488264 -10.813107 4.1224365
-6.9099965 -10.863999 4.0914154
-7.0689006 -10.983037 4.0167513
-7.0829363 -10.993819 4.010036
-7.1075392 -11.027461 3.9916368
-7.1515222 -11.074691 3.9645495
-7.2476244 -11.155024 3.9156442
-7.3195195 -11.226297 3.8740325
-7.47436 -11.320528 3.8110621
-7.5823793 -11.369686 3.7745867
-7.7162781 -11.430483 3.729435
-7.7303143 -11.441264 3.7227199
-7.8033333 -11.493023 3.6897326
-7.8789368 -11.579288 3.6408875
-7.9033394 -11.600636 3.6280422
-7.9941587 -11.669536 3.58498
-8.0098686 -11.682905 3.5768788
-8.1876516 -11.784786 3.5074158
-8.1963472 -11.792768 3.5026698
-8.2943554 -12.091814 3.3551776
-8.3224707 -12.128157 3.3350968
-8.5937862 -12.377778 3.1867638
-8.4801874 -12.549397 3.1247206
1.8553129 1.0316248 4.0105224
1.7896321 1.1255496 4.0499229
1.6704491 1.2613337 4.1056504
1.6475949 1.2911785 4.1180692
1.6340573 1.3045256 4.1234541
1.4539069 1.4846022 4.1962357
1.3673363 1.5210536 4.2084184
1.3361094 1.5327046 4.2121315
1.2540177 1.4441466 4.1676536
1.0937389 1.2959249 4.0920453
1.0490745 1.2597668 4.073318
1.0408109 1.2514975 4.0691342
1.0261221 1.2372773 4.0619154
0.86016786 1.1196306 3.9999325
0.68505675 0.84749728 3.8671806
0.68439513 0.3651033 3.6476212
0.62218106 0.2879054 3.6093242
0.54207289 0.21562922 3.5723567
0.4220863 0.11329451 3.519681
0.38568294 0.085400134 3.5051346
0.36187738 0.063287318 3.4938602
0.28855878 -0.0047536492 3.4591653
0.16711816 -0.12926731 3.3963225
0.11946565 -0.19530675 3.3638449
-0.066947192 -0.33596328 3.2903495
-0.14844278 -0.36863571 3.2713342
-0.32800236 -0.47233272 3.2150071
-0.43390051 -0.58300251 3.159255
-0.51325917 -0.67002791 3.1156137
-0.54904234 -0.70462787 3.098047
-0.63557494 -0.81618989 3.0428746
-0.75790596 -0.90580624 2.9958675
-0.91328084 -1.0345404 2.9293771
-0.99580157 -1.0917171 2.8991582
-1.1056123 -1.1440673 2.8697472
-1.1369942 -1.1621435 2.8599241
-1.2278186 -1.2494042 2.8155923
-1.2884969 -1.2898444 2.7941012
-1.3472111 -1.3249097 2.775156
-1.5278358 -1.4749255 2.697696
-1.670053 -1.5698566 2.6472583
-1.7152312 -1.6182718 2.6229267
-1.9186368 -1.7658916 2.545398
-1.9880903 -1.8268533 2.5141215
-2.0026519 -1.8380113 2.5083029
-2.1215744 -1.9230826 2.4635375
-2.3598485 -2.0618439 2.3882656
-2.394201 -2.104542 2.3670866
-2.5376742 -2.2510996 2.2930911
-2.5522358 -2.2622573 2.2872725
-2.619725 -2.3178427 2.2585425
-2.6580906 -2.3511088 2.2414517
-2.6736348 -2.3649569 2.2343588
-2.7270746 -2.4216371 2.2058458
-2.8860717 -2.5392241 2.1442437
-2.9440603 -2.5777285 2.1237707
-2.9668837 -2.597151 2.1137705
-3.0592027 -2.6993537 2.0625627
-3.0890255 -2.8030415 2.0138593
-3.1224322 -2.8709178 1.9812706
-2.9415329 -2.7297218 2.0547309
-2.8900993 -2.7002363 2.070766
-2.7473707 -2.5930531 2.1268055
-2.7298992 -2.5823293 2.132575
-2.6893654 -2.5536301 2.1476979
-2.5838237 -2.4936371 2.1803699
-2.5692625 -2.4824793 2.1861882
-2.4912832 -2.4353993 2.2115815
-2.4717119 -2.4237115 2.217896
-2.4571507 -2.4125538 2.2237148
-2.4461331 -2.40153 2.2292919
-2.2857628 -2.2795374 2.2929685
-2.1469061 -2.1733868 2.348341
-1.965529 -2.1116211 2.3856788
-1.9383643 -2.1007307 2.3920169
-1.8702819 -2.0663924 2.411108
-1.7292616 -2.0000541 2.448473
-1.6856196 -1.9883952 2.4559994
-1.5762804 -1.9640381 2.4726477
-1.429864 -1.927969 2.4965124
-1.3069917 -1.9139314 2.5091531
-1.2109829 -1.8858702 2.5268085
-1.0780948 -1.8455265 2.5519302
-0.97727561 -1.8355644 2.561594
-0.85610569 -1.8237996 2.5731139
-0.78336287 -1.8007381 2.5873103
-0.64667332 -1.786041 2.6009541
-0.39284262 -1.6758382 2.664021
-0.34393802 -1.643389 2.6812766
-0.18483135 -1.5669782 2.7241457
-0.13194641 -1.5443683 2.7371261
-0.10333511 -1.5343049 2.7431617
0.053869575 -1.4596007 2.7851572
0.11160201 -1.427222 2.8028297
0.19412363 -1.370041 2.8330507
0.20868453 -1.3588837 2.8388691
0.41064012 -1.2043831 2.9194553
0.42618209 -1.1905398 2.9265459
0.4344441 -1.1822752 2.9307275
0.59850258 -1.0706069 2.9898932
0.66547996 -1.0272739 3.0130212
0.72936267 -0.99486524 3.0310204
0.84984547 -0.93562573 3.0641098
1.0352335 -0.8194738 3.1264014
1.2505429 -0.66079617 3.2095683
1.2677618 -0.64953899 3.2155671
1.3751544 -0.52392656 3.2781951
1.464955 -0.46117017 3.3113236
1.6342872 -0.37111846 3.3609209
1.6498315 -0.35727054 3.3680136
1.7328633 -0.28784159 3.4038343
1.9027084 -0.18553752 3.4590333
1.9823383 -0.12670302 3.4898593
1.9944727 -0.11740494 3.4947083
2.0338204 -0.081448674 3.5130732
2.0426602 -0.072303683 3.5176847
2.1028035 -0.010925412 3.548677
2.2261291 0.085322767 3.5987527
2.4329262 0.23960119 3.6794844
2.3885329 0.31619561 3.7120817
2.3673189 0.35718071 3.7296534
2.337841 0.38989741 3.743042
2.1720388 0.55522805 3.8098428
2.1266651 0.62913698 3.8411682
1.9967545 0.81010979 3.916914
1.9902418 0.82290965 3.9224074
1.9701922 0.84905618 3.9332857
1.9549785 0.86498958 3.9397626
8.2986221 1.5467856 -4.4168248
8.4544601 1.6193404 -4.3753533
8.620966 1.7389009 -4.3099203
8.6360331 1.8108876 -4.2732658
8.8597698 2.0889921 -4.1263304
8.8744202 2.0998588 -4.1203985
9.113945 2.4232454 -3.9502029
9.1285954 2.4341116 -3.9442716
9.1992683 2.658699 -3.8291531
9.1755981 2.7260373 -3.7960811
9.1629057 2.7418973 -3.7885208
9.102129 2.7998786 -3.7613444
9.0826836 2.8221765 -3.750767
9.0564842 2.8509164 -3.73717
9.003274 2.9054313 -3.7114921
8.9838276 2.9277289 -3.7009146
8.897665 3.0174246 -3.6586208
8.7928686 3.1323907 -3.6042299
8.7396603 3.1869049 -3.578552
8.6408033 3.2924571 -3.5286999
8.5757122 3.3657975 -3.4939454
8.5554543 3.3851247 -3.4848866
8.4768572 3.4713497 -3.444093
8.4506578 3.5000901 -3.430496
8.4303989 3.5194173 -3.4214373
8.3704367 3.5803738 -3.39274
8.3239794 3.6284401 -3.3700845
8.2834616 3.6670945 -3.3519671
8.2513227 3.7052524 -3.3338292
8.184845 3.7637422 -3.306581
8.1197548 3.8370821 -3.271827
8.0552349 3.9223032 -3.2310846
8.0058069 3.9750772 -3.2061596
7.9698863 4.0149703 -3.1872716
7.937746 4.0531249 -3.1691356
7.9011049 4.0955777 -3.1489847
7.8650894 4.1299367 -3.1328804
7.8135042 4.190392 -3.1041653
7.7805529 4.2255797 -3.0875461
7.7611065 4.2478776 -3.0769687
7.7214012 4.2895021 -3.0573325
7.6541524 4.3705249 -3.0187876
7.6317353 4.3975296 -3.0059407
7.6148524 4.4136357 -2.9983919
7.5126209 4.522409 -2.9470298
7.4737287 4.5670099 -2.9258721
7.4475307 4.5957546 -2.9122727
7.3335443 4.7082443 -2.8594217
7.3049078 4.7280679 -2.8503833
7.1857944 4.8529468 -2.7914724
7.1494665 4.891355 -2.7733438
7.0996323 4.9426427 -2.7491784
7.047235 5.0001278 -2.721982
6.9813294 5.0704932 -2.6887484
6.9213672 5.1314502 -2.6600511
6.8714066 5.1978521 -2.6282959
6.8452072 5.2265925 -2.6146986
6.8122544 5.261775 -2.5980821
6.7455397 5.3291731 -2.5663655
6.6780109 5.3935971 -2.5361695
6.6315536 5.4416642 -2.5135138
6.6053543 5.4704046 -2.4999168
6.5918489 5.4832892 -2.4938774
6.5064979 5.5759568 -2.4500644
6.4608536 5.6269994 -2.4258876
6.3611865 5.7295809 -2.3775539
6.3349867 5.7583203 -2.3639574
6.2952828 5.7999506 -2.3443184
6.2750244 5.8192778 -2.3352597
6.1829219 5.9183874 -2.2884269
6.1507807 5.9565415 -2.2702911
6.1305227 5.9758677 -2.2612329
6.0376081 6.0720062 -2.2159193
5.9852099 6.1294918 -2.1887224
5.9717045 6.1423759 -2.1826835
5.8601546 6.2637844 -2.125273
5.780746 6.3470383 -2.0859985
5.7410402 6.3886638 -2.0663619
5.6827021 6.4555621 -2.034627
5.6632566 6.4778638 -2.0240474
5.6167994 6.5259309 -2.0013919
5.5719666 6.5799451 -1.9756957
5.52038 6.6404014 -1.9469801
5.4687943 6.7008567 -1.918265
5.442596 6.7296023 -1.9046652
5.4290905 6.742486 -1.8986264
5.3377991 6.8445678 -1.8502746
5.245697 6.9436765 -1.8034424
5.2330041 6.959537 -1.7958817
5.1992402 6.9917493 -1.7807837
5.1530218 7.030911 -1.7625948
5.0785012 7.1106815 -1.7249132
5.0514898 7.1364508 -1.712835
5.0236664 7.1592498 -1.7022753
4.915062 7.2291279 -1.6706612
4.8324046 7.3004947 -1.6374639
4.8155222 7.3165998 -1.6299154
4.7732525 7.3644176 -1.6072501
4.7014103 7.4442039 -1.5694743
4.6549516 7.4922719 -1.5468181
4.6287518 7.5210123 -1.533221
4.5890484 7.5626416 -1.5135825
4.4042969 7.4208641 -1.5907657
4.3668594 7.3907266 -1.6071135
4.3117623 7.3289256 -1.6399388
4.2848063 7.2864289 -1.662159
4.1097398 7.1080046 -1.7574435
4.0869513 7.088728 -1.7678627
3.9870925 6.9913611 -1.819999
3.9074898 6.8746619 -1.8811969
3.8605309 6.82127 -1.9095352
3.8355465 6.7841783 -1.9289762
3.6544597 6.5641608 -2.0453529
3.632484 6.5478611 -2.0542502
3.5385509 6.4623957 -2.1002159
3.4377873 6.3323722 -2.1687899
3.4144282 6.3012261 -2.1851909
3.3587587 6.22755 -2.2240014
3.2898238 6.1578574 -2.2612374
3.2816868 6.1494532 -2.265722
3.218452 6.079248 -2.3030322
3.1706789 6.0228801 -2.3328919
3.1316173 5.9867973 -2.3522792
3.1192451 5.9638 -2.3642325
3.0484333 5.8374295 -2.4300065
2.9995186 5.7573156 -2.4718342
2.9294388 5.6638718 -2.5210409
2.8788054 5.5481296 -2.5808253
2.722373 5.3444314 -2.6882091
2.6350441 5.2911072 -2.7178128
2.6290238 5.2495174 -2.7389033
2.5542903 5.0100708 -2.8616185
2.5438633 4.9541636 -2.8900447
2.5591559 4.8873177 -2.9231391
2.6159468 4.8654757 -2.9322855
2.768183 4.7860942 -2.9672699
2.8287191 4.7370181 -2.9899793
3.0264986 4.4363241 -3.1346958
3.0459459 4.4140263 -3.1452734
3.1357598 4.2674155 -3.2160466
3.2290075 4.1920571 -3.2509086
3.4143565 4.0175867 -3.3326042
3.5047426 3.8828459 -3.3973949
3.6939836 3.6425576 -3.5120356
3.7389085 3.6182241 -3.5228157
4.0159674 3.5540416 -3.5461452
4.1303792 3.4920113 -3.5736294
4.4127102 3.0743563 -3.7743909
4.4446659 2.9768384 -3.82236
4.5249691 2.866607 -3.8751605
4.6356244 2.7721753 -3.9190454
4.9562221 2.6688089 -3.9606614
5.0750971 2.5528343 -4.0151057
5.1131768 2.5052631 -4.0377822
5.1733809 2.4354067 -4.0709434
5.2994871 2.2951798 -4.1373405
5.3121805 2.2793241 -4.1448989
5.3685613 2.1856992 -4.1901255
5.4009404 2.1386416 -4.2127271
5.4211998 2.119314 -4.221786
5.5076017 2.0207138 -4.2685461
5.5875831 1.9493387 -4.3018341
5.6456819 1.8913403 -4.3291049
5.7895184 1.6931903 -4.4240346
5.8835778 1.6208029 -4.4573779
5.9114027 1.5980086 -4.4679351
5.9698319 1.5607901 -4.4847546
5.9909019 1.5444341 -4.4922943
6.038744 1.5112133 -4.5074463
6.1587639 1.4189906 -4.5499196
6.2373605 1.3327651 -4.5907135
6.3515863 1.2113698 -4.6480312
6.4236002 1.2122707 -4.6452603
6.5913496 1.2318623 -4.6300163
6.6832614 1.226788 -4.6296072
6.8362398 1.2399657 -4.6180615
6.9730349 1.2660141 -4.6005702
6.9944382 1.2704384 -4.5976582
7.3050485 1.2915523 -4.5770507
7.3305211 1.3001785 -4.5718966
7.3828487 1.3322816 -4.5540819
7.4164581 1.3493164 -4.5444407
7.5769668 1.3953114 -4.5161638
7.8629184 1.4107702 -4.4991913
8.1091518 1.4891751 -4.4518704
8.1784868 1.4900584 -4.4491949
8.1988401 1.500417 -4.4433346
8.2847834 1.5388901 -4.4212375
2.0782912 4.6479602 -1.6559443
2.0549672 4.6628046 -1.631061
2.0172133 4.6012707 -1.4823018
1.8878304 4.3477869 -0.91848063
1.8481777 4.2850523 -0.76464075
1.838055 4.2683845 -0.72454011
1.7584854 4.2228842 -0.5177561
1.7430309 4.162571 -0.41232765
1.7247877 4.0550871 -0.24186839
1.7080739 3.988842 -0.12655945
1.7195939 3.9494138 -0.098155364
1.7392533 3.8701353 -0.03447701
1.7440459 3.8431656 -0.0092631727
1.7518164 3.763664 0.07697475
1.7507247 3.6734262 0.19343121
1.7621236 3.565362 0.30908418
1.7492135 3.5015221 0.41421598
1.7046968 3.4391375 0.57672626
1.6455119 3.3649528 0.78168285
1.6294882 3.3359907 0.84842765
1.6240056 3.3256764 0.87177783
1.6189432 3.3173394 0.8918342
1.6199713 3.3012803 0.91026855
1.5513589 3.1611347 1.2165201
1.524421 3.1535585 1.2766012
1.5077891 3.1426337 1.3216172
1.4999871 3.1291423 1.3533422
1.4407773 3.0703475 1.5388321
1.4161618 3.0659549 1.5905256
1.3315392 3.0408192 1.7809584
1.2989335 3.0429478 1.8393552
1.257195 2.999033 1.9732422
1.2487495 2.9902673 2.0001812
1.2401083 2.9728203 2.0384934
1.2495434 2.9522104 2.0469446
1.3099434 2.7156754 2.2336659
1.3241704 2.6680977 2.2673309
1.3582535 2.549921 2.3533003
1.3694322 2.448566 2.4608595
1.376544 2.4247751 2.4776978
1.4081233 2.3234386 2.5470073
1.4725111 2.0692902 2.7485886
1.4350245 1.9277935 2.99823
1.4267633 1.8990092 3.0502043
1.4212496 1.8753886 3.0904839
1.3908427 1.8120595 3.2277532
1.3881032 1.8069049 3.2394216
1.3830407 1.7985673 3.2594788
1.2520061 1.7098507 3.6174901
1.1971006 1.7107594 3.7192183
1.1785331 1.6853244 3.786258
1.149575 1.6079123 3.938668
1.1531868 1.5150616 4.0496235
1.1991799 1.4614 4.0314789
1.2657192 1.3744237 4.0170746
1.3068852 1.3344204 3.990658
1.3663094 1.2712309 3.9594274
1.4051552 1.2280507 3.9413862
1.4849327 1.1324321 3.9131339
1.5802722 1.0313535 3.8626442
1.653738 0.94060498 3.8400438
1.6856575 0.90119648 3.830199
1.7919146 0.78829956 3.7742367
1.8687637 0.69797927 3.7447536
1.9539849 0.58979815 3.7222288
1.9962106 0.5470407 3.6973186
2.0369568 0.50506055 3.6741953
2.134387 0.39473563 3.6315112
2.3401899 -0.064535618 3.8281822
2.3441072 -0.10877007 3.8769259
2.345551 -0.12285638 3.8920803
2.3559685 -0.3457514 4.1551638
2.384119 -0.43189013 4.2116299
2.4244056 -0.48916221 4.2087555
2.4302831 -0.49787867 4.2087936
2.4619927 -0.53827512 4.2005949
2.4882412 -0.56798375 4.1890779
2.5168128 -0.5945096 4.1691728
2.6854255 -0.78545094 4.0953202
2.7523499 -0.88376069 4.094564
2.9329832 -1.0568318 3.9755309
3.0102525 -1.1451755 3.9427543
3.1736703 -1.3044696 3.8385117
3.3708322 -1.5862322 3.8263149
3.4292657 -1.6776822 3.8327711
3.4930654 -1.7698131 3.8300354
3.5150948 -1.8038993 3.8319747
3.6404529 -1.9360235 3.7645991
3.7017448 -2.0113184 3.7452164
3.7506421 -2.0644495 3.7209578
3.8047869 -2.1151047 3.6837268
3.9438286 -2.2786579 3.6305594
4.0057702 -2.3443294 3.5977583
4.0653133 -2.3965192 3.5523584
4.1330705 -2.4677761 3.5157416
4.1609592 -2.4970479 3.5005972
4.245152 -2.5891685 3.4596369
4.7465634 -3.0156913 3.060883
4.8215098 -3.1072178 3.0364945
4.8943467 -3.2009325 3.0188339
4.9131384 -3.225491 3.0147598
4.9342337 -3.2535248 3.0107756
4.9682426 -3.2974014 3.0026793
5.0432277 -3.3756123 2.9613361
5.0925727 -3.4278088 2.9350538
5.1270394 -3.4563956 2.9067154
5.2405643 -3.5111384 2.7634017
5.5644083 -3.7262125 2.4292793
5.6976552 -3.8692036 2.3608997
5.7494144 -3.9282298 2.3387525
5.8512173 -4.0675006 2.3245754
5.9205317 -4.1360126 2.2815609
5.9348803 -4.1149554 2.2279773
5.9399385 -4.1066227 2.2079339
5.944581 -4.1002626 2.1911707
5.9650974 -4.0316124 2.0656869
5.9677105 -3.8712001 1.8574089
5.9755316 -3.8510509 1.8172073
5.8981123 -3.7293773 1.8080059
5.7601423 -3.5350938 1.8202026
5.5878401 -3.3112149 1.8592072
5.5275736 -3.2519851 1.8970375
5.2144852 -2.6637566 1.7378927
5.1895666 -2.6014957 1.7056451
5.1831751 -2.5847497 1.69639
5.1634693 -2.5474811 1.6860625
5.1063514 -2.4663424 1.6902149
4.9408507 -2.0214798 1.4362944
4.9478827 -1.9507887 1.3334905
5.0542607 -1.7549429 0.88585347
5.0679646 -1.585032 0.64474916
5.0674334 -1.5692263 0.62570554
5.1767368 -1.3753521 0.17508681
5.2894092 -1.3683138 -0.044960335
5.485991 -1.4524682 -0.30661285
5.4942307 -1.4303441 -0.3501026
5.5180736 -1.3812349 -0.45704311
5.5260358 -1.3290818 -0.53808606
5.5396647 -1.2866337 -0.61744291
5.5443892 -1.2249532 -0.70449913
5.5612879 -1.1787263 -0.79477322
5.6268196 -1.1056632 -1.0101999
5.6722546 -1.0992732 -1.1034365
5.7449336 -1.0366908 -1.3189672
5.7702389 -0.99501455 -1.4192244
5.7753019 -0.98667741 -1.439281
5.780364 -0.97834003 -1.4593381
5.7772861 -0.93015063 -1.5146683
5.7866201 -0.76014984 -1.7476988
5.7919998 -0.67449617 -1.8663771
5.871685 -0.35852003 -2.4163084
5.8818102 -0.34184504 -2.4564219
5.8868694 -0.3335135 -2.4764652
5.9328442 -0.25650978 -2.6602428
6.0027452 -0.21239805 -2.8471503
6.0314016 -0.18359804 -2.9373612
6.2158918 -0.12418401 -3.3583839
6.2792039 -0.12964183 -3.4700963
6.3051176 -0.10600221 -3.548625
6.3101759 -0.097669423 -3.5686686
6.2900677 0.081597626 -3.7582784
6.2991648 0.11433101 -3.8168259
6.2937675 0.15934265 -3.8637819
6.2957525 0.21586841 -3.9391689
6.2714033 0.24677736 -3.9327331
6.1263847 0.45818081 -3.9290347
6.0218754 0.93787777 -4.341404
6.0312757 0.96159357 -4.3890867
6.0413971 0.97826409 -4.4291878
6.0558271 1.0546412 -4.5530634
5.9725904 1.2193477 -4.6059251
5.8232179 1.3290333 -4.4651017
5.5407667 1.6126705 -4.2954693
5.3239474 1.8940268 -4.245924
5.2712975 1.9867676 -4.264854
5.1759548 2.0782788 -4.2022285
4.9949331 2.2626784 -4.0968304
4.9531622 2.320724 -4.092155
4.9409876 2.3361783 -4.0889368
4.8347306 2.4490752 -4.0329752
4.7935658 2.4890776 -4.0065589
4.7037048 2.5909042 -3.9672842
4.6770329 2.6186299 -3.9524598
4.6106715 2.6136026 -3.8217392
4.3256783 2.6694145 -3.358489
4.1829724 2.7687206 -3.2169986
4.0169039 2.9561353 -3.1434419
3.8442111 3.0806692 -2.9777479
3.5684979 3.3805485 -2.8413336
3.522963 3.4495029 -2.8434374
3.4294856 3.5289044 -2.7689531
3.4149873 3.5411761 -2.7573457
3.1208663 3.8975716 -2.6580949
3.0389547 3.9795547 -2.6085553
2.8406997 4.1710758 -2.4798951
2.5561929 4.3715668 -2.2009914
2.4627151 4.4509678 -2.1265061
2.3801167 4.4956722 -2.0284145
2.1440725 4.6123505 -1.7340544
-4.0829563 -6.7196827 1.06212
-4.7109308 -6.2646608 1.1776364
-4.8530774 -6.1555619 1.195958
-5.0103707 -6.0370378 1.2190545
-5.0907502 -5.988924 1.2468313
-5.2338428 -5.887289 1.2757798
-5.2711043 -5.8607879 1.2832729
-5.4043827 -5.8434019 1.4093604
-5.6254282 -5.8719888 1.6921343
-5.6415386 -5.8792925 1.7194397
-5.650034 -5.8928509 1.7462888
-5.8533754 -5.9643693 2.0644195
-5.9535451 -6.0085154 2.2325709
-5.9687052 -6.0375066 2.2866364
-5.9648514 -6.1399536 2.4137535
-5.9785962 -6.4557171 2.8340831
-6.0342946 -6.4806304 2.9280524
-6.0852633 -6.5357895 3.0555515
-6.0941992 -6.5461621 3.0788052
-6.1071596 -6.5649042 3.117275
-6.113821 -6.6327181 3.2116761
-6.1089501 -6.6553068 3.2352269
-6.0709376 -6.7724209 3.3431261
-6.0182381 -6.8871732 3.4316435
-6.0014625 -7.0599465 3.6345809
-6.0557656 -7.1359243 3.7924964
-6.0533471 -7.1595097 3.8200564
-6.0335355 -7.2099442 3.8626904
-6.0180416 -7.2578893 3.906939
-6.0101676 -7.2995858 3.9516559
-6.0074573 -7.3340287 3.9928179
-6.0071993 -7.3694711 4.0379925
-5.9993258 -7.4111671 4.0827093
-5.9351625 -7.5665274 4.2105503
-5.881146 -7.6489387 4.2561183
-5.7732978 -7.8460178 4.388835
-5.7437086 -7.8908501 4.4133968
-5.6878605 -8.0013275 4.4929256
-5.6035609 -8.1410151 4.5782447
-5.5751061 -8.1702185 4.5840235
-5.5102692 -8.246542 4.609735
-5.4604101 -8.3196068 4.647943
-5.3623242 -8.4838629 4.7494259
-5.338716 -8.5305061 4.7829704
-5.2802558 -8.5938969 4.7991934
-5.1716547 -8.6758003 4.7833366
-5.1564212 -8.6883106 4.7824225
-5.1387343 -8.6998205 4.7774944
-4.8209076 -8.977582 4.7799177
-4.7905254 -8.9995174 4.7742276
-4.7252946 -9.0382061 4.7512264
-4.7007785 -9.0465641 4.734652
-4.6629162 -9.0605669 4.7104578
-4.6353698 -9.0678425 4.6891212
-4.5045562 -9.0842066 4.564467
-4.4197969 -9.0978632 4.4876161
-4.3613029 -9.1104765 4.4386692
-4.3113928 -9.1073799 4.3791294
-4.1354089 -9.1179066 4.1966968
-4.1087713 -9.1260347 4.177465
-4.085938 -9.1312647 4.1587515
-4.0738516 -9.1323299 4.1466608
-3.8996949 -9.1606207 3.9890485
-3.6833265 -9.1764708 3.7684808
-3.6688812 -9.1783524 3.7548118
-3.634028 -9.1640215 3.6976247
-3.6255338 -9.1504631 3.6707764
-3.6591005 -9.0509958 3.5805628
-3.6605895 -8.8014116 3.2620816
-3.6553345 -8.7925377 3.2448483
-3.6480668 -8.779479 3.2200062
-3.6351058 -8.7607374 3.1815362
-3.6453049 -8.7377605 3.1634195
-3.6662683 -8.6970844 3.1345849
-3.7402954 -8.2580061 2.6538033
-3.7738113 -8.0692263 2.4489729
-3.7983871 -7.8962574 2.2544692
-3.7881379 -7.8430724 2.1748383
-3.7795367 -7.7033753 1.9860743
-3.7466941 -7.6335135 1.8598968
-3.7510552 -7.5387545 1.7432061
-3.7350931 -7.3960609 1.5424027
-3.6697364 -7.205584 1.2253137
-3.666481 -7.1170802 1.1081661
-3.6607327 -7.0483246 1.0135746
-3.7087464 -6.9064093 0.88499784
-3.9154596 -6.8157887 0.99890852
5.3262038 -6.5726261 2.2064943
5.3299861 -6.5475526 2.1684017
5.328289 -6.5328226 2.159668
5.2686028 -6.3396106 2.1754141
5.203753 -6.129035 2.1918807
5.1916456 -6.0910187 2.1962435
5.1795387 -6.0530014 2.2006061
5.1300988 -5.9284101 2.2488906
5.108233 -5.8714757 2.2684264
5.0929031 -5.8296828 2.2802553
5.0792427 -5.7950435 2.2933841
5.0011005 -5.5941181 2.3657231
4.9550171 -5.4888859 2.4215677
4.9502335 -5.4796605 2.4290524
4.9358792 -5.4519873 2.4515207
4.8907695 -5.3520417 2.5092292
4.7912197 -5.0333323 2.5390196
4.6774917 -4.8156061 2.71856
4.6621785 -4.7851667 2.7416167
4.6043439 -4.6550517 2.8136411
4.5848842 -4.6020999 2.828757
4.5533767 -4.5262828 2.8630905
4.4607992 -4.3094101 2.9698372
4.4509377 -4.2824841 2.9774065
4.3940649 -4.1551323 3.0488276
4.3763027 -4.1169109 3.0726776
4.3371625 -4.0202045 3.1128213
4.3279996 -3.995141 3.1198103
4.2907062 -3.897234 3.1523304
4.2255802 -3.703033 3.1860335
4.1519156 -3.5213175 3.2618799
4.1372814 -3.48769 3.2794049
4.1389813 -3.5024171 3.2881253
4.1425982 -3.6512799 3.4235117
4.0582585 -3.7554865 3.8207519
4.0367107 -3.742341 3.8827083
4.023057 -3.7379618 3.9258943
3.9628525 -3.7269831 4.124599
3.9389198 -3.7212036 4.2021823
3.8800507 -3.8059664 4.4914107
3.8505738 -3.859683 4.6474409
3.8471539 -3.8680439 4.6676593
3.8341269 -3.8907199 4.735558
3.824151 -3.9217539 4.8011417
3.8012302 -3.9527974 4.9118061
3.7918615 -4.0487013 5.0397606
3.7914994 -4.065414 5.0576353
3.7925856 -4.0784736 5.0668354
3.7999127 -4.1617246 5.1240816
3.806648 -4.2054887 5.1441355
3.8145099 -4.4016666 5.3117771
3.8164518 -4.4979796 5.4007573
3.8580003 -4.613801 5.3712292
3.867872 -4.6432528 5.3661356
3.9091406 -4.7531204 5.3316646
3.9555256 -4.8693571 5.2857099
3.998148 -4.9728513 5.2401891
4.0496497 -5.0954571 5.1827502
4.0765753 -5.1587424 5.1519113
4.1250262 -5.2729912 5.0967884
4.1784496 -5.4011283 5.0381575
4.2159548 -5.487762 4.9936934
4.2479944 -5.5679107 4.9618115
4.2521853 -5.5790863 4.9583302
4.2872839 -5.6500998 4.9067168
4.3518543 -5.8099899 4.8408394
4.3653159 -5.8416338 4.8254266
4.407403 -5.9512906 4.7878952
4.4403553 -6.0539517 4.7752147
4.5906076 -6.6223793 4.8171277
4.5911593 -6.7023625 4.8947158
4.5938487 -6.7274323 4.910274
4.6193352 -6.8197603 4.9133167
4.6495762 -6.9351702 4.922749
4.6755099 -6.9881153 4.8850856
4.8350768 -7.3471494 4.6864161
4.8604655 -7.3503733 4.6012225
4.8666596 -7.3444128 4.5737314
4.8721418 -7.3340669 4.5443587
4.8817492 -7.3197517 4.4966779
4.90097 -7.2911143 4.401288
4.9064522 -7.2807684 4.3719163
4.9119344 -7.2704229 4.3425436
4.9510221 -7.2023878 4.1388187
4.9595995 -7.1890631 4.0957079
4.9640489 -7.1797113 4.07092
4.9746904 -7.1644006 4.0186481
4.9781103 -7.1560397 3.9984303
4.9825611 -7.1466861 3.9736347
4.985981 -7.1383257 3.9534166
5.0055637 -7.0929756 3.8401525
5.0237112 -7.0766668 3.7607558
5.0333214 -7.0623479 3.7130611
5.0422206 -7.0436444 3.6634843
5.0607328 -7.0106196 3.5661988
5.0854359 -6.9716363 3.4414372
5.0950432 -6.9573207 3.3937562
5.1190381 -6.9139504 3.2670987
5.1245203 -6.9036045 3.2377262
5.1341305 -6.889286 3.1900313
5.1375504 -6.8809252 3.1698134
5.1409669 -6.8725672 3.1496091
5.1601877 -6.8439298 3.0542195
5.1828251 -6.8069353 2.9386258
5.1975751 -6.7611675 2.8417742
5.2071853 -6.7468486 2.7940795
5.219142 -6.7364969 2.7421596
